-70.612472 42.992541 -1.2
-70.612213 42.992910 -4.0
-70.611955 42.993310 -5.8
-70.611275 42.993991 -8.2
-70.610750 42.994738 -14.9
-70.610127 42.995558 -19.8
-70.609616 42.996288 -27.7
-70.609058 42.997019 -27.4
-70.608480 42.997777 -25.9
-70.607933 42.998508 -15.2
-70.607308 42.999272 -13.7
-70.606913 43.000038 -16.8
-70.606844 43.000366 -11.6
-70.606788 43.000697 -11.9
-70.606808 43.000994 -8.2
-70.606827 43.001308 -7.6
-70.606836 43.001641 -6.7
-70.606947 43.001972 -4.3
-70.606969 43.002299 -1.2
-70.606983 43.002563 -0.9
-70.606952 43.002913 -6.4
-70.606922 43.003135 -5.2
-70.607047 43.003305 -4.9
-70.607030 43.003591 -4.3
-70.607125 43.003760 -3.4
-70.607052 43.003883 -2.1
-70.607288 43.004124 -2.1
-70.607366 43.004280 -1.2
-70.607441 43.004433 -1.2
-70.607452 43.004647 -1.8
-70.607533 43.004805 -5.2
-70.607533 43.005005 -9.1
-70.607558 43.005149 -11.3
-70.607586 43.005319 -16.5
-70.607616 43.005480 -17.7
-70.607725 43.005660 -21.0
-70.606825 43.005952 -24.4
-70.605991 43.006208 -16.5
-70.605111 43.006485 -18.6
-70.604250 43.006735 -14.9
-70.603452 43.006969 -12.5
-70.602655 43.007224 -9.1
-70.601977 43.007402 -1.8
-70.601802 43.007499 -2.7
-70.600825 43.007077 -12.5
-70.599988 43.006708 -17.1
-70.599255 43.006369 -16.8
-70.598408 43.005952 -10.1
-70.597863 43.005741 -8.8
-70.597627 43.005524 -2.0
-70.597447 43.005399 -1.2
-70.596991 43.005094 -5.0
-70.596416 43.004710 -5.0
-70.595705 43.004322 -15.7
-70.595005 43.003899 -15.7
-70.594294 43.003494 -19.7
-70.593708 43.003030 -22.1
-70.594441 43.002797 -26.7
-70.595216 43.002535 -27.0
-70.596077 43.002285 -26.7
-70.596908 43.002027 -27.3
-70.597702 43.001805 -29.1
-70.598536 43.001563 -28.2
-70.599341 43.001341 -17.8
-70.598719 43.000572 -23.9
-70.600472 43.000349 -7.6
-70.601483 43.000547 -9.4
-70.601883 43.000908 -12.2
-70.602494 43.001291 -4.6
-70.603380 43.001980 -6.7
-70.604311 43.002727 -8.2
-70.604738 43.002902 -8.5
-70.605186 43.003122 -7.0
-70.605761 43.003302 -2.4
-70.606180 43.003505 -1.8
-70.606538 43.003697 -1.5
-70.606638 43.002694 -4.9
-70.606333 43.002430 -11.3
-70.606263 43.002149 -12.5
-70.606155 43.001869 -7.3
-70.606113 43.001597 -5.2
-70.605933 43.001333 -6.7
-70.605830 43.001044 -7.3
-70.605661 43.000763 -9.0
-70.605569 43.000513 -5.6
-70.605536 43.000266 -4.7
-70.605336 42.999952 -8.4
-70.605091 42.999277 -17.5
-70.604852 42.998597 -27.0
-70.604594 42.997835 -27.3
-70.604163 42.996463 -23.9
-70.604002 42.995802 -21.8
-70.603911 42.995113 -20.3
-70.603588 42.994017 -23.6
-70.603505 42.993103 -28.2
-70.603377 42.992034 -27.9
-70.603291 42.991084 -34.0
-70.603202 42.990064 -35.8
-70.601755 42.992486 -28.2
-70.601658 42.993409 -27.9
-70.601802 42.994259 -25.8
-70.601438 42.995270 -27.9
-70.601372 42.996175 -23.6
-70.601277 42.997149 -30.0
-70.601075 42.998083 -26.4
-70.600950 42.998530 -20.4
-70.600775 42.998930 -23.5
-70.600641 42.999480 -14.9
-70.600494 42.999997 -3.7
-70.611208 42.992033 -7.3
-70.610363 42.992555 -11.3
-70.609297 42.993349 -14.6
-70.608191 42.994160 -17.4
-70.607036 42.994935 -24.7
-70.606130 42.995663 -30.2
-70.605030 42.996508 -30.5
-70.604552 42.997049 -23.0
-70.604144 42.997277 -26.5
-70.602997 42.998108 -28.7
-70.601963 42.998902 -29.0
-70.601158 42.999705 -26.5
-70.600808 43.000049 -14.0
-70.601066 43.000141 -11.6
-70.601525 43.000155 -6.7
-70.601969 43.000210 -12.2
-70.602400 43.000233 -6.7
-70.602872 43.000266 -7.6
-70.603375 43.000322 -12.2
-70.603744 43.000322 -8.8
-70.604394 43.000369 -6.4
-70.604277 43.000619 -2.1
-70.604230 43.000835 -1.8
-70.604152 43.000997 -2.1
-70.604111 43.001313 -0.3
-70.604022 43.001722 -7.2
-70.603980 43.002085 -5.6
-70.603894 43.002374 -9.4
-70.603733 43.002535 -6.6
-70.603744 43.002780 -5.6
-70.603675 43.002952 -2.3
-70.603647 43.003266 -1.2
-70.603513 43.003463 -3.8
-70.603355 43.003683 -8.4
-70.603466 43.003863 -4.7
-70.603008 43.004019 -2.9
-70.602580 43.004130 -3.8
-70.602191 43.004269 -4.4
-70.601775 43.004369 -4.7
-70.601402 43.004460 -4.7
-70.601069 43.004588 -2.6
-70.600666 43.004658 -6.2
-70.599930 43.004847 -9.3
-70.599527 43.004980 -8.4
-70.599155 43.005094 -5.0
-70.598827 43.005222 -5.6
-70.598388 43.005327 -4.7
-70.598013 43.005410 -5.6
-70.597466 43.005655 -2.4
-70.597050 43.005880 -3.7
-70.596641 43.006149 -5.5
-70.595852 43.006702 -11.0
-70.594936 43.007322 -10.7
-70.594100 43.007899 -24.4
-70.593311 43.008491 -34.4
-70.592397 43.009005 -37.2
-70.591705 43.009583 -41.5
-70.592780 43.009341 -39.9
-70.593591 43.009152 -39.3
-70.594455 43.008952 -37.2
-70.595455 43.008713 -33.8
-70.596419 43.008480 -29.3
-70.597227 43.008294 -24.4
-70.597772 43.008180 -16.5
-70.598316 43.008077 -14.3
-70.598830 43.007966 -7.3
-70.599336 43.007860 -8.5
-70.599869 43.007777 -7.0
-70.599913 43.007999 -3.4
-70.599608 43.008255 -4.3
-70.599300 43.008460 -1.5
-70.599047 43.008672 -8.2
-70.598588 43.009080 -8.8
-70.598205 43.009455 -10.1
-70.597788 43.009888 -10.4
-70.597350 43.010308 -14.6
-70.596922 43.010710 -21.0
-70.596533 43.011130 -24.4
-70.596036 43.011483 -36.6
-70.595677 43.011988 -41.1
-70.596655 43.011644 -41.1
-70.597538 43.011144 -41.5
-70.598247 43.010760 -39.3
-70.599441 43.010172 -32.0
-70.600613 43.009594 -30.5
-70.601455 43.009160 -24.7
-70.602261 43.008735 -18.0
-70.603100 43.008366 -18.6
-70.603655 43.008083 -15.5
-70.604113 43.007885 -14.0
-70.604533 43.007666 -14.3
-70.605100 43.007377 -15.5
-70.605594 43.007180 -15.2
-70.606052 43.006924 -14.6
-70.606425 43.006755 -13.4
-70.606702 43.006585 -12.8
-70.607116 43.006402 -11.9
-70.607530 43.006194 -11.6
-70.608019 43.006024 -9.4
-70.608505 43.005422 -11.6
-70.609030 43.004910 -9.1
-70.609613 43.004344 -7.6
-70.609966 43.004010 -3.4
-70.610186 43.003680 -2.1
-70.610475 43.003427 -2.1
-70.610863 43.003197 -1.2
-70.610905 43.002994 -2.4
-70.611038 43.002799 -4.9
-70.611102 43.002663 -3.0
-70.611147 43.002491 -7.0
-70.611316 43.002327 -5.5
-70.611341 43.002144 -13.1
-70.611505 43.001835 -19.5
-70.611794 43.001430 -21.9
-70.611933 43.001069 -23.5
-70.612175 43.000680 -18.6
-70.612472 43.000174 -22.3
-70.612794 42.999672 -21.6
-70.613038 42.999210 -22.6
-70.613291 42.998788 -20.4
-70.613477 42.998380 -17.1
-70.613775 42.997874 -15.2
-70.614116 42.997377 -12.5
-70.614380 42.996816 -15.5
-70.615008 42.995772 -19.2
-70.615641 42.994733 -14.3
-70.616225 42.993652 -14.0
-70.616897 42.992597 -5.8
-70.617455 42.991599 -4.3
-70.617588 42.991372 -1.2
-70.617805 42.991097 -2.4
-70.618000 42.990849 -2.7
-70.618261 42.990544 -3.0
-70.618505 42.990377 -5.5
-70.618880 42.990272 -3.0
-70.619308 42.990152 -6.4
-70.619636 42.990055 -12.5
-70.620377 42.989808 -13.7
-70.621155 42.989566 -14.9
-70.621883 42.989349 -16.2
-70.622569 42.989124 -15.5
-70.623205 42.988952 -18.6
-70.623850 42.988794 -18.6
-70.622566 42.987722 -14.3
-70.621800 42.987172 -18.6
-70.621136 42.986638 -18.3
-70.620616 42.986333 -16.8
-70.620450 42.986052 -14.9
-70.619900 42.985519 -9.4
-70.619225 42.984938 -6.7
-70.618400 42.984433 -3.7
-70.618191 42.984127 -6.1
-70.617869 42.983860 -6.1
-70.617063 42.983213 -8.5
-70.616436 42.982753 -11.6
-70.616136 42.981984 -14.8
-70.616125 42.982292 -12.5
-70.616619 42.982481 -12.2
-70.617202 42.982741 -12.2
-70.617747 42.982980 -10.1
-70.619030 42.983485 -14.6
-70.619588 42.983716 -15.8
-70.620227 42.983955 -16.8
-70.620827 42.984197 -17.1
-70.621444 42.984441 -17.7
-70.622069 42.984702 -19.2
-70.622688 42.984935 -18.3
-70.623347 42.985138 -23.2
-70.622688 42.985385 -23.8
-70.621972 42.985674 -21.6
-70.621286 42.985980 -19.2
-70.619913 42.986580 -13.7
-70.619638 42.986710 -9.1
-70.619305 42.986844 -7.6
-70.618983 42.986991 -8.5
-70.618677 42.987102 -7.6
-70.618358 42.987272 -5.8
-70.618047 42.987408 -4.6
-70.617697 42.987522 -3.4
-70.617477 42.987633 -1.5
-70.617305 42.987666 -2.1
-70.617083 42.987738 -1.5
-70.616900 42.987838 -0.9
-70.616750 42.987935 -0.3
-70.618075 42.987738 -6.7
-70.618838 42.987824 -8.5
-70.619800 42.987930 -10.4
-70.620827 42.988033 -11.6
-70.621677 42.988122 -14.6
-70.622411 42.988177 -15.8
-70.623127 42.988258 -15.8
-70.623963 42.988344 -15.8
-70.624827 42.988435 -20.4
-70.625822 42.988491 -22.9
-70.625177 42.988755 -23.2
-70.624605 42.989002 -21.9
-70.624016 42.989222 -21.6
-70.623358 42.989538 -20.7
-70.622686 42.989749 -21.3
-70.621991 42.990052 -17.4
-70.621319 42.990285 -16.2
-70.620666 42.990552 -15.2
-70.620030 42.990833 -15.2
-70.619375 42.991091 -13.4
-70.618758 42.991322 -7.3
-70.618486 42.991480 -4.3
-70.618233 42.991633 -3.0
-70.617919 42.991777 -3.4
-70.617547 42.991933 -4.6
-70.617236 42.992097 -4.9
-70.616913 42.992097 -4.3
-70.616375 42.992333 -3.7
-70.615986 42.992502 -0.9
-70.615663 42.992647 -0.9
-70.616430 42.992766 -7.9
-70.617452 42.992866 -12.8
-70.618447 42.992966 -14.3
-70.619388 42.993102 -13.7
-70.620344 42.993205 -15.8
-70.621211 42.993308 -8.5
-70.622205 42.993435 -9.8
-70.623136 42.993552 -16.2
-70.624130 42.993652 -16.8
-70.625086 42.993788 -17.1
-70.626002 42.993888 -17.1
-70.626988 42.994002 -15.5
-70.627880 42.994094 -15.5
-70.611402 42.991780 -7.8
-70.611008 42.991602 -11.1
-70.610441 42.991399 -11.7
-70.609913 42.991155 -23.6
-70.609088 42.990841 -24.5
-70.608213 42.990528 -20.0
-70.607452 42.990184 -27.9
-70.606625 42.989864 -26.4
-70.605836 42.989517 -30.0
-70.605038 42.989206 -30.3
-70.604058 42.988717 -35.2
-70.601724 42.987648 -31.9
-70.600624 42.987075 -30.3
-70.599712 42.986603 -30.0
-70.598776 42.986148 -34.0
-70.597954 42.985925 -36.4
-70.602543 42.985348 -19.4
-70.603543 42.985681 -20.3
-70.603624 42.984953 -17.5
-70.603179 42.984650 -19.8
-70.604124 42.984617 -15.5
-70.605001 42.984550 -11.6
-70.605362 42.984011 -8.4
-70.605812 42.984481 -13.1
-70.606847 42.984386 -14.3
-70.606279 42.984092 -7.2
-70.606863 42.984142 -6.6
-70.607397 42.984161 -10.5
-70.607700 42.984359 -11.3
-70.608197 42.984234 -11.4
-70.608844 42.984389 -16.0
-70.609655 42.984200 -15.5
-70.610605 42.986373 -5.3
-70.610619 42.985986 -6.6
-70.610677 42.985628 -7.5
-70.610797 42.984956 -7.2
-70.610397 42.984525 -9.3
-70.611694 42.984698 -0.8
-70.611497 42.984550 -2.3
-70.611202 42.984561 -5.3
-70.610958 42.984298 -11.1
-70.610550 42.984136 -12.5
-70.611019 42.983895 -13.6
-70.611552 42.984078 -14.6
-70.611130 42.983559 -7.5
-70.611355 42.983275 -3.2
-70.611608 42.983023 -2.9
-70.611816 42.983359 -4.7
-70.612008 42.983575 -7.5
-70.612183 42.983848 -8.1
-70.612391 42.984039 -14.0
-70.612677 42.984273 -4.4
-70.612758 42.984473 -3.8
-70.612958 42.984678 -2.6
-70.613213 42.984923 -1.7
-70.613286 42.984545 -4.1
-70.613263 42.984264 -5.3
-70.613250 42.983981 -11.1
-70.613269 42.983520 -9.0
-70.613750 42.983631 -10.2
-70.613913 42.983178 -7.8
-70.613297 42.983275 -6.2
-70.613388 42.983036 -2.9
-70.613422 42.982861 -1.7
-70.613450 42.982173 -0.8
-70.613602 42.981956 -2.7
-70.613719 42.981775 -3.8
-70.615316 42.978600 -2.9
-70.615405 42.978831 -5.6
-70.615330 42.979100 -10.5
-70.615319 42.979353 -17.5
-70.615491 42.979556 -19.1
-70.615763 42.979245 -12.6
-70.615830 42.979014 -6.9
-70.616041 42.978748 -6.6
-70.615683 42.978595 -5.0
-70.616047 42.978539 -6.2
-70.616525 42.978336 -5.6
-70.616666 42.978078 -3.5
-70.616819 42.977845 -1.1
-70.617033 42.977631 -1.1
-70.617288 42.977400 -0.8
-70.617494 42.976948 -1.7
-70.617086 42.977950 -3.2
-70.616919 42.978273 -4.7
-70.616725 42.978792 -9.9
-70.616636 42.979109 -15.1
-70.616508 42.979442 -19.7
-70.616316 42.980061 -20.9
-70.616194 42.980478 -20.6
-70.616005 42.980739 -16.6
-70.617825 42.981250 -21.5
-70.617244 42.981423 -15.7
-70.616480 42.981745 -16.6
-70.615622 42.981903 -12.3
-70.615511 42.982275 -10.8
-70.615202 42.983045 -11.4
-70.615102 42.983728 -12.0
-70.614936 42.984028 -7.2
-70.614869 42.984367 -2.9
-70.614661 42.984603 -0.8
-70.614577 42.984236 -4.4
-70.614541 42.983853 -6.6
-70.614472 42.983414 -11.1
-70.614452 42.983017 -10.5
-70.614347 42.982636 -8.7
-70.614280 42.982236 -6.6
-70.614219 42.981739 -9.4
-70.614183 42.981392 -7.6
-70.614055 42.981056 -11.7
-70.614488 42.980928 -11.4
-70.614061 42.980653 -16.3
-70.613963 42.980231 -13.6
-70.613911 42.979817 -13.6
-70.613883 42.979411 -7.2
-70.613911 42.979042 -5.0
-70.613736 42.978314 -0.5
-70.613830 42.978506 -1.1
-70.613502 42.978584 -2.0
-70.613166 42.978745 -4.1
-70.612091 42.979459 -9.6
-70.611819 42.979692 -11.4
-70.611669 42.979917 -11.0
-70.611480 42.980109 -13.4
-70.611263 42.980261 -11.9
-70.611002 42.980375 -9.1
-70.610944 42.980559 -4.6
-70.610691 42.980731 -0.9
-70.610566 42.980534 -2.1
-70.610649 42.980242 -8.5
-70.610715 42.979934 -11.3
-70.610865 42.979628 -6.4
-70.611040 42.978828 -6.7
-70.611271 42.978217 -2.4
-70.611421 42.977564 -0.3
-70.611418 42.977806 -0.9
-70.611162 42.977911 -1.2
-70.610893 42.978317 -3.7
-70.610646 42.978664 -7.6
-70.610393 42.978923 -7.3
-70.610321 42.979184 -7.0
-70.609907 42.980034 -4.9
-70.609710 42.980231 -8.5
-70.609624 42.980411 -4.9
-70.609474 42.980559 -1.5
-70.609110 42.980567 -1.5
-70.608299 42.980117 -5.5
-70.607865 42.979875 -3.0
-70.607679 42.979773 -3.7
-70.607371 42.979656 -2.1
-70.606804 42.979434 -1.2
-70.606240 42.979242 -3.0
-70.606068 42.979123 -5.5
-70.605674 42.979361 -5.5
-70.605079 42.979564 -6.7
-70.604551 42.979820 -7.3
-70.604004 42.980025 -7.3
-70.603590 42.980234 -5.8
-70.603071 42.980431 -6.7
-70.601226 42.979989 -11.7
-70.601024 42.979573 -19.4
-70.600829 42.979156 -31.2
-70.600587 42.978745 -36.7
-70.600457 42.978309 -38.6
-70.600049 42.977428 -42.2
-70.599799 42.977031 -37.6
-70.599582 42.976589 -29.4
-70.599390 42.976186 -15.4
-70.599235 42.975803 -3.2
-70.599076 42.975395 -2.0
-70.599724 42.975342 -6.9
-70.600487 42.975361 -3.8
-70.601274 42.975361 -11.1
-70.601957 42.975370 -30.0
-70.603415 42.975370 -39.2
-70.604132 42.975392 -36.1
-70.604901 42.975389 -37.6
-70.606354 42.975417 -35.7
-70.607790 42.975448 -30.8
-70.609293 42.975467 -12.5
-70.610004 42.975459 -13.4
-70.610740 42.975448 -15.5
-70.611326 42.975445 -11.9
-70.611682 42.975342 -2.7
-70.611387 42.975117 -6.4
-70.611212 42.974870 -12.2
-70.610726 42.974323 -12.5
-70.610204 42.973684 -28.7
-70.609768 42.973059 -32.9
-70.608924 42.971839 -36.0
-70.608182 42.970692 -25.3
-70.607554 42.969748 -17.7
-70.607279 42.969184 -21.6
-70.606846 42.968270 -29.9
-70.606593 42.967773 -30.2
-70.606360 42.967298 -28.7
-70.606126 42.966842 -28.0
-70.605771 42.965831 -29.9
-70.605007 42.965070 -30.8
-70.604226 42.964242 -34.7
-70.603868 42.963839 -18.0
-70.603490 42.963475 -17.1
-70.603135 42.963061 -9.1
-70.602840 42.962761 -3.4
-70.603071 42.962678 -2.4
-70.603404 42.962764 -7.0
-70.603835 42.962895 -10.4
-70.604468 42.962975 -14.3
-70.605201 42.963136 -20.1
-70.606037 42.963264 -35.4
-70.607557 42.963506 -37.2
-70.608949 42.963795 -37.2
-70.610035 42.964009 -37.2
-70.611457 42.964300 -40.8
-70.612999 42.964653 -38.7
-70.614426 42.964973 -36.3
-70.615887 42.965250 -36.6
-70.617343 42.965548 -36.6
-70.619024 42.966045 -36.3
-70.620012 42.966323 -35.7
-70.621218 42.966639 -21.6
-70.622196 42.966931 -11.9
-70.622615 42.967053 -3.7
-70.622946 42.967092 -7.6
-70.622685 42.967236 -3.4
-70.622354 42.967248 -4.6
-70.621662 42.967236 -9.1
-70.620940 42.967248 -17.4
-70.620282 42.967248 -21.3
-70.619635 42.967275 -35.7
-70.618932 42.967275 -35.7
-70.618201 42.967270 -39.3
-70.616918 42.967328 -40.2
-70.615515 42.967498 -41.1
-70.614196 42.967750 -41.1
-70.612857 42.967978 -35.7
-70.611665 42.968198 -28.3
-70.610379 42.968364 -28.3
-70.609118 42.968492 -27.7
-70.607951 42.968625 -24.1
-70.607096 42.968717 -22.6
-70.606493 42.968784 -28.7
-70.605346 42.968917 -27.4
-70.604043 42.969064 -29.0
-70.602957 42.969256 -25.6
-70.602199 42.969267 -21.9
-70.601507 42.969336 -22.9
-70.600824 42.969417 -35.7
-70.600032 42.969470 -37.5
-70.598701 42.969550 -45.7
-70.597426 42.969681 -46.6
-70.598160 42.970398 -36.6
-70.598785 42.971159 -20.4
-70.599346 42.971864 -16.8
-70.600076 42.972561 -20.7
-70.600662 42.973325 -16.5
-70.601396 42.974045 -21.6
-70.602137 42.974831 -25.9
-70.602812 42.975634 -34.7
-70.603501 42.976234 -33.8
-70.604143 42.976917 -26.8
-70.604535 42.977475 -10.1
-70.605062 42.978078 -9.4
-70.605565 42.978600 -9.1
-70.606757 42.979700 -2.1
-70.606682 42.979989 -3.4
-70.606615 42.980314 -4.6
-70.606554 42.980603 -5.8
-70.606362 42.980839 -3.7
-70.606368 42.981178 -3.0
-70.606243 42.981370 -2.1
-70.606171 42.981623 -0.6
-70.606660 42.981434 -1.8
-70.607060 42.981245 -3.0
-70.607360 42.981095 -2.4
-70.607604 42.980967 -1.8
-70.607807 42.980836 -2.1
-70.608112 42.980734 -2.1
-70.608340 42.980636 -2.4
-70.608593 42.980503 -3.0
-70.608843 42.980342 -2.4
-70.609001 42.980239 -2.7
-70.609329 42.980106 -4.9
-70.610010 42.979728 -11.3
-70.610371 42.979539 -11.0
-70.610682 42.979403 -7.6
-70.611074 42.979173 -6.7
-70.611479 42.978986 -7.9
-70.611757 42.978870 -5.8
-70.612026 42.978756 -4.9
-70.612232 42.978600 -2.7
-70.612485 42.978470 -0.3
-70.612805 42.978486 -0.3
-70.612677 42.978884 -4.9
-70.612602 42.979161 -7.5
-70.612466 42.979514 -11.9
-70.612330 42.980125 -7.0
-70.612252 42.980431 -11.9
-70.612188 42.980764 -6.1
-70.612188 42.980967 -4.0
-70.612133 42.981206 -3.4
-70.612119 42.981436 -3.0
-70.611988 42.981614 -2.4
-70.611941 42.981786 -1.2
-70.611875 42.981986 -1.2
-70.612133 42.981942 -1.8
-70.612394 42.981859 -2.4
-70.612644 42.981800 -2.4
-70.613013 42.981670 -2.7
-70.613372 42.981639 -2.4
-70.613786 42.981553 -4.1
-70.614713 42.981961 -11.1
-70.614716 42.981570 -11.0
-70.614947 42.981198 -11.6
-70.614875 42.980350 -15.1
-70.615525 42.980225 -19.4
-70.615308 42.980798 -16.0
-70.615577 42.981106 -13.3
-70.615336 42.981442 -12.2
-70.615866 42.981523 -13.9
-70.615872 42.981239 -17.4
-70.615769 42.980959 -14.3
-70.616525 42.981053 -18.0
-70.616586 42.980773 -21.6
-70.617111 42.980903 -18.9
-70.617355 42.980575 -22.6
-70.618305 42.980536 -19.2
-70.618850 42.980234 -22.9
-70.619536 42.980142 -19.8
-70.619625 42.980549 -23.5
-70.620150 42.979967 -18.9
-70.620697 42.979772 -19.2
-70.621252 42.979599 -19.2
-70.621869 42.979427 -18.3
-70.622144 42.979499 -19.8
-70.622419 42.979210 -18.0
-70.622902 42.979291 -18.3
-70.623066 42.979030 -17.4
-70.623738 42.979066 -17.4
-70.624272 42.978944 -12.5
-70.624333 42.978616 -9.8
-70.624730 42.978794 -6.1
-70.620800 42.978609 -3.4
-70.620916 42.978775 -2.1
-70.621025 42.979203 -17.4
-70.621552 42.979860 -20.6
-70.621594 42.980444 -22.3
-70.625705 42.978760 -7.6
-70.625302 42.978977 -11.3
-70.624972 42.979219 -15.2
-70.624558 42.979438 -17.7
-70.623772 42.979916 -16.8
-70.623011 42.980333 -17.4
-70.622250 42.980772 -22.6
-70.621516 42.981208 -22.3
-70.620727 42.981724 -21.0
-70.619966 42.982172 -20.7
-70.619155 42.982644 -19.2
-70.618386 42.983113 -15.2
-70.617647 42.983519 -12.0
-70.617108 42.983813 -7.8
-70.616775 42.984072 -4.4
-70.616436 42.984272 -3.5
-70.616113 42.984416 -2.6
-70.616005 42.984024 -8.4
-70.615936 42.983598 -11.7
-70.615875 42.983189 -11.7
-70.615850 42.982792 -11.7
-70.616997 42.978473 -7.5
-70.617472 42.978434 -10.2
-70.617897 42.978434 -14.5
-70.618783 42.978375 -15.1
-70.619238 42.978353 -14.6
-70.619713 42.978328 -14.0
-70.620036 42.978300 -7.6
-70.620305 42.978311 -2.4
-70.620502 42.978250 -0.9
-70.620813 42.978386 -5.8
-70.621072 42.978270 -5.5
-70.621500 42.978289 -10.4
-70.622044 42.978281 -16.2
-70.622505 42.978297 -17.1
-70.623047 42.978299 -17.1
-70.623572 42.978322 -18.0
-70.624091 42.978319 -13.4
-70.624608 42.978310 -10.7
-70.624305 42.977341 -6.2
-70.624616 42.977597 -5.0
-70.624652 42.977766 -6.6
-70.624888 42.977927 -5.6
-70.625088 42.978191 -7.8
-70.625302 42.978463 -7.2
-70.625766 42.978552 -4.3
-70.626150 42.978469 -3.4
-70.626627 42.978497 -5.9
-70.627091 42.978452 -5.3
-70.627527 42.978430 -5.3
-70.628102 42.978430 -9.6
-70.628625 42.978424 -9.6
-70.629125 42.978430 -9.9
-70.629666 42.978405 -15.1
-70.630191 42.978416 -14.8
-70.630683 42.978408 -13.9
-70.631183 42.978416 -14.5
-70.631661 42.978416 -13.9
-70.632113 42.978408 -12.3
-70.632611 42.978416 -10.5
-70.633161 42.978422 -10.8
-70.633713 42.978433 -17.2
-70.634250 42.978416 -20.9
-70.634716 42.978408 -26.4
-70.635277 42.978416 -24.5
-70.635697 42.978324 -26.4
-70.635313 42.978052 -25.6
-70.634941 42.977747 -21.9
-70.634500 42.977494 -20.1
-70.634097 42.977210 -19.2
-70.633716 42.976944 -19.2
-70.633263 42.976635 -17.1
-70.632872 42.976316 -11.9
-70.632544 42.976072 -5.8
-70.632077 42.975822 -6.1
-70.631816 42.975688 -4.7
-70.631716 42.975377 -4.0
-70.631480 42.975199 -3.7
-70.631233 42.975080 -4.3
-70.631211 42.974666 -17.7
-70.631311 42.974222 -22.6
-70.631350 42.973738 -25.0
-70.631466 42.973305 -26.8
-70.631538 42.972794 -28.7
-70.631725 42.972297 -26.8
-70.632816 42.972669 -27.4
-70.633869 42.973008 -28.7
-70.635038 42.973405 -29.9
-70.636119 42.973763 -28.3
-70.637116 42.974133 -27.0
-70.638169 42.974524 -28.5
-70.639316 42.974902 -30.3
-70.640394 42.975238 -32.2
-70.641580 42.975535 -33.4
-70.640094 42.975641 -34.0
-70.639019 42.975655 -32.8
-70.637725 42.975641 -25.8
-70.636513 42.975633 -22.1
-70.635313 42.975633 -20.0
-70.634086 42.975641 -13.6
-70.632855 42.975669 -7.5
-70.631433 42.975994 -4.4
-70.630952 42.976227 -8.4
-70.630652 42.976458 -8.1
-70.630388 42.976744 -4.7
-70.630030 42.976997 -3.5
-70.629730 42.977341 -4.0
-70.629452 42.977233 -1.5
-70.629038 42.977213 -2.1
-70.628650 42.977197 -2.1
-70.628305 42.977197 -2.1
-70.628005 42.977205 -1.5
-70.627933 42.977077 -1.2
-70.628202 42.976885 -1.5
-70.628422 42.976733 -2.1
-70.628838 42.976524 -1.5
-70.629138 42.976377 -1.2
-70.629333 42.976219 -1.7
-70.629652 42.976072 -2.4
-70.629888 42.975905 -4.0
-70.630122 42.975777 -2.7
-70.630325 42.975641 -4.6
-70.630627 42.975522 -3.0
-70.630725 42.975360 -4.6
-70.630958 42.975272 -2.1
-70.630891 42.975013 -8.2
-70.630611 42.974747 -18.6
-70.630305 42.974355 -23.2
-70.629852 42.973974 -24.7
-70.629347 42.973577 -26.8
-70.628850 42.973191 -27.3
-70.628372 42.972778 -27.0
-70.627622 42.972092 -19.7
-70.627222 42.971745 -13.3
-70.626852 42.971364 -10.2
-70.626477 42.971059 -6.9
-70.626091 42.970736 -6.6
-70.625733 42.970378 -6.2
-70.625552 42.970028 -7.2
-70.625244 42.969814 -3.2
-70.624922 42.969642 -2.9
-70.624958 42.970131 -6.6
-70.625130 42.970484 -6.9
-70.625275 42.970845 -6.2
-70.625438 42.971239 -8.7
-70.625672 42.971636 -10.2
-70.625852 42.972020 -12.6
-70.626094 42.972378 -17.7
-70.626533 42.973373 -24.7
-70.626652 42.973709 -25.3
-70.626813 42.974078 -25.3
-70.626847 42.974438 -17.7
-70.627013 42.974694 -10.4
-70.627150 42.975088 -7.9
-70.626730 42.974997 -8.2
-70.626405 42.974855 -7.6
-70.626005 42.974720 -11.9
-70.625622 42.974575 -14.3
-70.625200 42.974445 -20.7
-70.624772 42.974284 -22.6
-70.624441 42.974139 -22.6
-70.623958 42.974067 -19.8
-70.623550 42.973892 -18.9
-70.623091 42.973761 -18.0
-70.623975 42.973523 -18.0
-70.624827 42.973250 -15.5
-70.625580 42.973050 -14.3
-70.626355 42.972850 -13.4
-70.627147 42.972609 -19.8
-70.627866 42.972398 -25.3
-70.628666 42.972159 -25.3
-70.629425 42.971947 -25.3
-70.630216 42.971694 -23.5
-70.631041 42.971502 -19.8
-70.631800 42.971247 -18.0
-70.632572 42.971066 -19.2
-70.633225 42.970802 -24.2
-70.633988 42.970613 -26.4
-70.634797 42.970397 -26.7
-70.635597 42.970194 -27.3
-70.636397 42.969980 -27.9
-70.637183 42.969794 -33.1
-70.638152 42.969513 -30.6
-70.637444 42.969497 -31.9
-70.636833 42.969535 -30.9
-70.636122 42.969519 -30.0
-70.635505 42.969502 -29.1
-70.634863 42.969488 -30.0
-70.634250 42.969505 -29.7
-70.633652 42.969497 -22.1
-70.632994 42.969519 -17.2
-70.632391 42.969505 -14.5
-70.631775 42.969534 -13.3
-70.631152 42.969520 -17.8
-70.630527 42.969506 -17.2
-70.629911 42.969514 -14.5
-70.629300 42.969520 -11.7
-70.628666 42.969520 -10.8
-70.628044 42.969523 -9.9
-70.627438 42.969534 -8.1
-70.626963 42.969536 -6.7
-70.627686 42.969209 -9.0
-70.628555 42.968903 -10.5
-70.629402 42.968611 -14.5
-70.630263 42.968295 -17.1
-70.631119 42.967981 -19.1
-70.631966 42.967678 -20.9
-70.632797 42.967292 -23.0
-70.633641 42.967045 -28.2
-70.634588 42.966770 -41.9
-70.635580 42.966350 -34.0
-70.635016 42.966398 -32.8
-70.634500 42.966489 -30.6
-70.634052 42.966531 -28.5
-70.633641 42.966575 -27.9
-70.633202 42.966639 -20.0
-70.632766 42.966689 -15.1
-70.632305 42.966723 -10.8
-70.631838 42.966778 -8.4
-70.631391 42.966842 -7.2
-70.630975 42.966898 -6.9
-70.630461 42.966959 -2.9
-70.630147 42.967009 -0.8
-70.629738 42.967059 -1.4
-70.629358 42.967145 -5.0
-70.628925 42.967170 -4.4
-70.628508 42.967203 -4.1
-70.628052 42.967267 -4.1
-70.627552 42.967320 -6.2
-70.627155 42.967364 -7.8
-70.626725 42.967317 -4.1
-70.626658 42.967042 -5.3
-70.626502 42.966775 -7.5
-70.626480 42.966459 -6.2
-70.626441 42.966145 -6.2
-70.626483 42.965842 -8.8
-70.626461 42.965548 -10.4
-70.626447 42.965198 -12.5
-70.626488 42.964795 -14.3
-70.625954 42.964689 -18.0
-70.625421 42.964542 -17.1
-70.624799 42.964381 -16.8
-70.624049 42.964164 -37.9
-70.623568 42.964009 -39.5
-70.623012 42.963848 -41.6
-70.622582 42.963700 -43.7
-70.622143 42.963592 -42.8
-70.622087 42.964114 -39.5
-70.621990 42.964636 -37.9
-70.621896 42.965520 -26.1
-70.621843 42.966306 -13.3
-70.622454 42.968448 -3.7
-70.622494 42.968823 -7.5
-70.622502 42.969086 -8.4
-70.622644 42.969434 -10.8
-70.622663 42.969770 -10.2
-70.622705 42.970186 -11.1
-70.622777 42.970564 -13.0
-70.622833 42.970895 -17.2
-70.622900 42.971270 -16.6
-70.622980 42.971653 -13.0
-70.623016 42.972009 -21.2
-70.623086 42.972336 -15.7
-70.623180 42.972745 -14.5
-70.623219 42.973170 -18.7
-70.623313 42.974228 -19.1
-70.623419 42.974575 -17.5
-70.623513 42.975023 -10.2
-70.623652 42.975442 -5.9
-70.623811 42.975825 -3.8
-70.623877 42.976059 -2.0
-70.623894 42.976275 -2.0
-70.623761 42.976614 -9.6
-70.624336 42.977049 -8.5
-70.623955 42.977038 -12.2
-70.623583 42.976800 -13.1
-70.623519 42.977038 -17.1
-70.623066 42.977050 -17.7
-70.622494 42.977050 -18.9
-70.621780 42.977061 -18.9
-70.621152 42.977070 -18.6
-70.620577 42.977061 -18.3
-70.620136 42.977050 -17.1
-70.619738 42.977070 -16.2
-70.619319 42.977061 -14.9
-70.618891 42.977084 -12.5
-70.618455 42.977103 -7.3
-70.618047 42.977109 -5.5
-70.617622 42.977189 -3.4
-70.622802 42.976489 -17.4
-70.622038 42.976159 -18.6
-70.621230 42.975884 -19.8
-70.620616 42.975617 -20.1
-70.619925 42.975359 -20.1
-70.619297 42.975103 -19.8
-70.618522 42.974756 -20.1
-70.617766 42.974484 -18.9
-70.617094 42.974186 -18.6
-70.616368 42.973925 -19.5
-70.615626 42.973625 -11.6
-70.615021 42.973403 -7.9
-70.614685 42.973253 -5.5
-70.615201 42.972900 -7.9
-70.615740 42.972609 -11.9
-70.616271 42.972264 -24.4
-70.616837 42.971898 -26.2
-70.617360 42.971567 -26.2
-70.617974 42.971184 -25.0
-70.618537 42.970870 -18.6
-70.619026 42.970573 -18.0
-70.619574 42.970220 -18.0
-70.620174 42.969850 -15.5
-70.620737 42.969461 -15.8
-70.621232 42.969170 -12.5
-70.621987 42.968761 -5.2
-70.620100 42.992872 -9.1
-70.619455 42.992605 -2.4
-70.598158 43.000063 -26.2
-70.597575 42.999384 -21.8
-70.597019 42.998798 -20.3
-70.596591 42.998173 -14.2
-70.595963 42.997673 -15.1
-70.595508 42.997161 -10.5
-70.595152 42.996664 -16.3
-70.594630 42.996239 -17.2
-70.594269 42.995739 -16.3
-70.593837 42.995309 -27.6
-70.593001 42.994531 -41.3
-70.592882 42.992870 -42.2
-70.593901 42.991736 -40.4
-70.594374 42.991128 -35.8
-70.594960 42.990573 -33.4
-70.596640 42.989131 -30.9
-70.597804 42.988417 -34.6
-70.598585 42.987920 -35.8
-70.599457 42.987448 -35.8
-70.600176 42.986981 -32.0
-70.600704 42.986631 -28.5
-70.601237 42.986248 -31.2
-70.601904 42.985892 -25.8
-70.602357 42.985617 -24.8
-70.602754 42.985395 -21.2
-70.603110 42.985120 -18.4
-70.603365 42.986167 -26.4
-70.603410 42.986806 -29.1
-70.603361 42.987392 -32.2
-70.603319 42.988248 -30.3
-70.603294 42.989100 -19.4
-70.602352 42.990142 -36.4
-70.602102 42.991170 -35.5
-70.601752 42.992245 -36.4
-70.609063 42.985645 -9.0
-70.608638 42.985439 -11.4
-70.607997 42.985192 -19.4
-70.607388 42.984903 -23.0
-70.606797 42.984695 -18.4
-70.606382 42.984489 -11.4
-70.605657 42.984192 -8.4
-70.601232 42.980220 -10.5
-70.601421 42.980606 -7.9
-70.601649 42.980900 -3.8
-70.602582 42.980636 -4.9
-70.602293 42.980756 -3.0
-70.602054 42.980911 -2.4
-70.601440 42.981175 -6.7
-70.600887 42.981425 -8.8
-70.600643 42.981581 -12.8
-70.600418 42.981734 -14.3
-70.599965 42.981936 -18.3
-70.599499 42.982123 -18.3
-70.599087 42.982331 -18.0
-70.598740 42.982573 -18.6
-70.598312 42.982792 -18.9
-70.597335 42.983075 -19.5
-70.596324 42.983359 -24.4
-70.595351 42.983656 -29.0
-70.594568 42.983875 -38.7
-70.593018 42.984334 -45.1
-70.592293 42.984570 -45.1
-70.593232 42.984792 -26.4
-70.594371 42.985056 -24.2
-70.595485 42.985364 -24.8
-70.596329 42.985575 -30.0
-70.597176 42.985786 -34.3
