-70.627880 42.971075 -22.9
-70.627888 42.970775 -23.2
-70.627297 42.969986 -5.2
-70.627316 42.970228 -8.8
-70.627363 42.970492 -13.7
-70.627294 42.970717 -13.7
-70.627461 42.970928 -16.8
-70.627558 42.971134 -21.9
-70.627597 42.971406 -25.3
-70.627866 42.971548 -25.0
-70.627675 42.971773 -25.6
-70.627786 42.972150 -26.5
-70.627880 42.972575 -27.1
-70.627958 42.972992 -27.4
-70.627977 42.973341 -27.1
-70.627975 42.973663 -25.6
-70.628016 42.974088 -24.1
-70.628672 42.973988 -24.1
-70.628283 42.974230 -23.8
-70.628000 42.974524 -22.3
-70.628002 42.974785 -13.1
-70.627994 42.975063 -12.2
-70.628030 42.975352 -4.6
-70.628033 42.975577 -2.7
-70.625433 42.981108 -21.6
-70.625272 42.981322 -20.7
-70.625027 42.981630 -25.0
-70.624747 42.981927 -27.1
-70.624500 42.982377 -28.7
-70.624188 42.982535 -29.3
-70.624038 42.982835 -29.3
-70.623858 42.983135 -28.0
-70.623752 42.983505 -25.0
-70.623525 42.983847 -21.6
-70.622972 42.984005 -22.3
-70.621866 42.984255 -19.5
-70.621163 42.984391 -18.0
-70.618983 42.985510 0.0
-70.619291 42.985302 -5.5
-70.619580 42.985063 -7.6
-70.620041 42.984769 -13.4
-70.620250 42.984585 -16.2
-70.620511 42.984399 -19.8
-70.620855 42.984163 -19.5
-70.621063 42.983958 -20.4
-70.621411 42.983588 -22.6
-70.621633 42.983413 -23.2
-70.621883 42.983152 -23.8
-70.622044 42.982955 -24.7
-70.622338 42.982724 -25.9
-70.622622 42.982458 -27.1
-70.622827 42.982210 -28.0
-70.623113 42.981944 -28.7
-70.623400 42.981677 -27.4
-70.623852 42.981241 -24.7
-70.624047 42.981038 -23.8
-70.624336 42.980774 -20.1
-70.624555 42.980560 -18.6
-70.624755 42.980322 -21.0
-70.624908 42.980116 -20.1
-70.625127 42.979847 -20.7
-70.625308 42.979622 -19.8
-70.625563 42.979355 -18.0
-70.625697 42.979169 -14.9
-70.625833 42.979013 -12.2
-70.625966 42.978855 -11.6
-70.626147 42.978638 -8.2
-70.626336 42.978441 -3.7
-70.626888 42.975702 -4.0
-70.626941 42.975458 -6.1
-70.626961 42.975152 -8.8
-70.626991 42.974802 -13.1
-70.627077 42.974458 -19.5
-70.627088 42.974047 -24.1
-70.627163 42.973328 -25.9
-70.627397 42.972945 -26.2
-70.626958 42.972648 -26.5
-70.626897 42.972214 -25.6
-70.626833 42.971881 -25.3
-70.626716 42.971464 -24.4
-70.626611 42.971100 -20.4
-70.626530 42.970725 -13.1
-70.626486 42.970392 -8.2
-70.626413 42.970067 -5.5
-70.626369 42.969809 -3.4
-70.626730 42.969875 -1.5
-70.625738 42.969628 -0.6
-70.625775 42.969850 -2.1
-70.625750 42.970073 -4.3
-70.625763 42.970317 -6.1
-70.625777 42.970553 -7.6
-70.625827 42.970942 -10.7
-70.625800 42.971467 -19.8
-70.625777 42.971861 -23.8
-70.625769 42.972350 -24.4
-70.625750 42.972803 -25.3
-70.625713 42.973170 -23.2
-70.625744 42.973431 -12.5
-70.625738 42.973661 -15.5
-70.625747 42.973889 -21.3
-70.625733 42.974128 -24.4
-70.625713 42.974384 -24.1
-70.625722 42.974634 -21.3
-70.625722 42.974875 -20.7
-70.625725 42.975166 -18.3
-70.625752 42.975472 -9.4
-70.625763 42.975824 -5.8
-70.625438 42.978577 -3.0
-70.625286 42.978791 -8.8
-70.625000 42.979049 -16.5
-70.624833 42.979272 -18.6
-70.624647 42.979458 -20.1
-70.624436 42.979660 -21.0
-70.624219 42.979888 -21.3
-70.624022 42.980108 -21.6
-70.623825 42.980249 -22.3
-70.623641 42.980410 -23.5
-70.623458 42.980616 -23.5
-70.623261 42.980833 -23.8
-70.623072 42.981033 -24.4
-70.622847 42.981291 -26.2
-70.622600 42.981544 -28.7
-70.622244 42.981894 -28.3
-70.621944 42.982194 -27.1
-70.621741 42.982422 -25.0
-70.621516 42.982647 -23.5
-70.621327 42.982855 -22.3
-70.621177 42.983024 -21.6
-70.620980 42.983233 -21.3
-70.620783 42.983416 -20.7
-70.620550 42.983663 -19.8
-70.620288 42.983877 -18.9
-70.620013 42.984147 -18.0
-70.619725 42.984344 -16.2
-70.619533 42.984530 -14.0
-70.619288 42.984685 -11.6
-70.618947 42.984985 -7.6
-70.618772 42.985138 -6.7
-70.618550 42.985333 -1.8
-70.617805 42.984855 -4.0
-70.618008 42.984649 -5.5
-70.618300 42.984383 -10.1
-70.618738 42.983958 -14.9
-70.619033 42.983705 -16.2
-70.619388 42.983452 -18.0
-70.619652 42.983183 -18.9
-70.619913 42.982960 -20.7
-70.620175 42.982749 -22.3
-70.620369 42.982527 -23.5
-70.620741 42.982263 -23.8
-70.621238 42.981819 -26.2
-70.621538 42.981547 -27.4
-70.621891 42.981208 -27.4
-70.622355 42.980855 -25.0
-70.622713 42.980513 -23.5
-70.623036 42.980272 -22.3
-70.623516 42.979785 -21.0
-70.623755 42.979558 -19.8
-70.624000 42.979288 -18.6
-70.624211 42.979058 -17.7
-70.624433 42.978785 -15.2
-70.624663 42.978566 -12.2
-70.624900 42.978308 -7.3
-70.625141 42.978066 -0.6
-70.625130 42.977808 -0.9
-70.626194 42.973839 -24.1
-70.626702 42.973450 -24.4
-70.626030 42.972514 -25.0
-70.626325 42.972214 -24.7
-70.626133 42.970417 -7.3
-70.625427 42.969914 -4.3
-70.625011 42.969564 -6.4
-70.625019 42.969889 -7.6
-70.625044 42.970186 -11.0
-70.625102 42.970681 -17.1
-70.625105 42.971034 -19.5
-70.625111 42.971375 -21.0
-70.625122 42.971734 -21.3
-70.625163 42.972095 -23.5
-70.625188 42.972461 -24.1
-70.625222 42.972867 -19.5
-70.625261 42.973231 -15.8
-70.625286 42.973589 -16.5
-70.625244 42.974025 -23.5
-70.625344 42.974464 -22.6
-70.625258 42.974836 -18.6
-70.625272 42.975209 -16.5
-70.625263 42.975599 -6.4
-70.625269 42.975963 -1.8
-70.625325 42.976924 -1.8
-70.625255 42.977066 -3.4
-70.624972 42.977291 -3.0
-70.624755 42.977535 -4.6
-70.624869 42.977769 -1.8
-70.624477 42.977783 -9.8
-70.624247 42.978002 -14.0
-70.623875 42.978280 -16.8
-70.623738 42.978477 -17.4
-70.623297 42.978952 -19.5
-70.622891 42.979344 -20.1
-70.622508 42.979666 -20.1
-70.622277 42.979930 -19.5
-70.621883 42.980183 -23.2
-70.621613 42.980433 -25.0
-70.621241 42.980733 -26.5
-70.620738 42.981210 -25.9
-70.620505 42.981452 -25.3
-70.620280 42.981719 -25.0
-70.619938 42.982077 -25.0
-70.619725 42.982302 -24.4
-70.619719 42.982477 -22.6
-70.619458 42.982599 -23.2
-70.619138 42.982913 -19.8
-70.618955 42.983116 -18.0
-70.618705 42.983363 -16.5
-70.618336 42.983677 -14.9
-70.618077 42.984002 -14.0
-70.617938 42.984194 -10.7
-70.617705 42.984255 -12.2
-70.617522 42.984449 -5.8
-70.617294 42.984655 -1.8
-70.617575 42.984730 -4.3
-70.615869 42.984777 -4.0
-70.616208 42.984624 -6.7
-70.616450 42.984441 -9.1
-70.616711 42.984238 -10.4
-70.616897 42.984010 -11.3
-70.617186 42.983766 -14.6
-70.617466 42.983527 -12.8
-70.617788 42.983252 -14.6
-70.618030 42.983041 -15.5
-70.618227 42.982877 -17.4
-70.618530 42.982627 -19.5
-70.618766 42.982391 -20.7
-70.619108 42.982302 -21.0
-70.619130 42.982060 -22.9
-70.619555 42.981666 -24.7
-70.619883 42.981310 -24.7
-70.620202 42.980913 -24.4
-70.620516 42.980613 -24.4
-70.620797 42.980299 -24.1
-70.621050 42.980022 -23.2
-70.621305 42.979766 -19.5
-70.621813 42.979241 -19.2
-70.622147 42.978963 -18.6
-70.622411 42.978694 -18.6
-70.622669 42.978402 -18.9
-70.623027 42.978091 -19.2
-70.623305 42.977780 -16.2
-70.623566 42.977538 -15.2
-70.623783 42.977322 -11.9
-70.624000 42.977110 -1.8
-70.624013 42.976852 -2.4
-70.624138 42.976516 -4.9
-70.624477 42.976299 -4.3
-70.624500 42.976095 -10.1
-70.624891 42.976005 -9.8
-70.624788 42.974909 -18.9
-70.624930 42.973464 -13.4
-70.624583 42.969492 -4.0
-70.624897 42.969331 -0.9
-70.624172 42.968831 -1.5
-70.624238 42.969070 -0.9
-70.624255 42.969339 -4.3
-70.624327 42.969573 -6.7
-70.624405 42.969842 -10.4
-70.624488 42.970103 -11.3
-70.624536 42.970378 -14.9
-70.624594 42.970684 -18.0
-70.624647 42.970934 -15.2
-70.624738 42.971167 -18.6
-70.624594 42.971681 -22.3
-70.624733 42.971889 -22.3
-70.624686 42.972331 -23.5
-70.624738 42.972531 -22.3
-70.624636 42.972795 -21.0
-70.624636 42.973164 -15.5
-70.624591 42.973531 -13.7
-70.624586 42.973814 -15.8
-70.624522 42.974061 -19.8
-70.624527 42.974567 -22.9
-70.624522 42.975095 -20.7
-70.624547 42.975620 -18.3
-70.624172 42.975870 -15.2
-70.624150 42.975481 -17.4
-70.624158 42.975078 -18.6
-70.624152 42.974389 -22.3
-70.624125 42.973911 -22.3
-70.624188 42.973525 -15.2
-70.624141 42.973203 -14.9
-70.624136 42.972786 -19.2
-70.624158 42.972473 -19.5
-70.623927 42.972236 -22.3
-70.624322 42.971953 -23.2
-70.624044 42.971784 -21.9
-70.623983 42.971448 -21.6
-70.623825 42.971020 -18.3
-70.623788 42.970792 -18.3
-70.623688 42.970417 -16.5
-70.623600 42.970078 -12.5
-70.623505 42.969717 -4.3
-70.623494 42.969534 -2.1
-70.623411 42.969406 -4.9
-70.623355 42.969064 -2.1
-70.623294 42.968750 -2.1
-70.621451 42.967150 -19.5
-70.621604 42.967714 -7.0
-70.621860 42.967873 -9.4
-70.622076 42.968284 -6.1
-70.622229 42.968503 -3.4
-70.622318 42.968725 -5.5
-70.622522 42.969056 -5.8
-70.622611 42.969314 -6.4
-70.622900 42.969784 -2.7
-70.623005 42.970206 -15.5
-70.623102 42.970600 -18.0
-70.623186 42.971034 -14.9
-70.623166 42.971317 -16.2
-70.623111 42.971778 -20.4
-70.623061 42.972242 -22.3
-70.623050 42.972681 -21.6
-70.623011 42.973036 -17.7
-70.623013 42.973367 -11.3
-70.622988 42.973734 -16.2
-70.623013 42.974200 -21.9
-70.623000 42.974659 -21.9
-70.623002 42.975048 -20.4
-70.622997 42.975442 -20.1
-70.623005 42.975814 -19.5
-70.623005 42.976178 -19.2
-70.622986 42.976567 -18.6
-70.622750 42.976873 -18.6
-70.622397 42.977620 -17.4
-70.622216 42.978188 -17.4
-70.615538 42.984619 -4.0
-70.615163 42.984616 -7.0
-70.615427 42.984402 -11.0
-70.615738 42.984052 -12.8
-70.616013 42.983752 -12.5
-70.616230 42.983467 -12.5
-70.616505 42.983114 -13.7
-70.616686 42.982914 -15.2
-70.617025 42.982539 -15.8
-70.617233 42.982281 -15.8
-70.617436 42.981998 -17.7
-70.617630 42.981781 -19.8
-70.617925 42.981367 -21.6
-70.618069 42.981120 -24.1
-70.618255 42.980878 -24.7
-70.618444 42.980656 -24.7
-70.618808 42.980248 -23.2
-70.618730 42.980073 -22.9
-70.619077 42.979961 -22.3
-70.619272 42.979759 -20.1
-70.619425 42.979534 -19.2
-70.619650 42.979303 -17.7
-70.619841 42.979086 -16.2
-70.620072 42.978742 -14.9
-70.620038 42.978370 -14.9
-70.620447 42.978375 -2.4
-70.620669 42.978334 -0.9
-70.620875 42.978317 -2.4
-70.620775 42.978153 -3.4
-70.620966 42.977948 -12.2
-70.621708 42.977298 -19.5
-70.622022 42.976611 -19.5
-70.622058 42.976203 -19.5
-70.622041 42.975853 -19.8
-70.622044 42.975492 -20.1
-70.622030 42.975075 -20.4
-70.622325 42.974417 -21.3
-70.622622 42.974078 -21.0
-70.621963 42.974342 -21.0
-70.621913 42.973961 -21.6
-70.621813 42.973625 -21.6
-70.621716 42.973275 -20.7
-70.621619 42.972867 -18.0
-70.621516 42.972434 -15.8
-70.621394 42.972045 -17.1
-70.621311 42.971656 -20.1
-70.621225 42.971264 -23.8
-70.621072 42.970639 -16.2
-70.620969 42.970317 -16.5
-70.620871 42.970031 -17.4
-70.620790 42.969725 -17.4
-70.620721 42.969317 -19.5
-70.620632 42.968956 -21.3
-70.620437 42.968323 -23.2
-70.620632 42.968048 -25.0
-70.621140 42.967920 -16.5
-70.620674 42.966675 -41.5
-70.620396 42.966981 -41.5
-70.620046 42.967778 -37.8
-70.619887 42.968256 -29.6
-70.619732 42.968589 -25.3
-70.619799 42.968811 -22.6
-70.619840 42.969256 -21.3
-70.619865 42.969661 -20.1
-70.619962 42.970028 -16.8
-70.620024 42.970289 -18.9
-70.620068 42.970723 -21.0
-70.620026 42.971100 -23.8
-70.620005 42.971439 -26.8
-70.620005 42.971720 -26.5
-70.619944 42.972167 -25.6
-70.619919 42.972434 -21.0
-70.619947 42.972850 -21.0
-70.619980 42.973170 -24.1
-70.620047 42.973492 -23.2
-70.619994 42.973831 -22.9
-70.619983 42.974303 -21.0
-70.620013 42.974736 -20.4
-70.620083 42.975234 -19.8
-70.620275 42.975695 -19.2
-70.620436 42.975948 -19.8
-70.620452 42.976184 -19.2
-70.620636 42.976400 -20.4
-70.620405 42.976656 -20.4
-70.620422 42.976839 -19.2
-70.620977 42.976750 -20.1
-70.620794 42.976973 -20.1
-70.620508 42.977270 -19.2
-70.620322 42.977520 -17.7
-70.620083 42.977764 -16.2
-70.619838 42.978042 -16.2
-70.619605 42.978306 -15.5
-70.619377 42.978578 -14.9
-70.619102 42.978859 -16.8
-70.618872 42.979109 -18.3
-70.619127 42.979300 -18.3
-70.618641 42.979359 -19.8
-70.618430 42.979609 -21.0
-70.618205 42.979828 -21.9
-70.618022 42.980070 -22.6
-70.617652 42.980409 -23.2
-70.617369 42.980714 -22.3
-70.617750 42.980909 -23.8
-70.617130 42.981031 -18.3
-70.617155 42.981136 -18.9
-70.617388 42.981389 -21.3
-70.617088 42.981570 -15.2
-70.616625 42.981361 -18.3
-70.616594 42.981611 -15.2
-70.616255 42.981975 -13.7
-70.615933 42.982334 -14.0
-70.615652 42.982611 -14.0
-70.615391 42.982831 -11.3
-70.616038 42.982995 -12.2
-70.615586 42.983150 -11.0
-70.615113 42.983131 -10.4
-70.614838 42.983400 -11.9
-70.614597 42.983670 -12.2
-70.614325 42.983881 -11.6
-70.614511 42.984075 -11.9
-70.614150 42.984120 -8.2
-70.613897 42.984509 -5.5
-70.613663 42.984811 -4.9
-70.613669 42.984961 -2.4
-70.613463 42.985111 -0.3
-70.613233 42.984967 -1.2
-70.612958 42.984875 -2.1
-70.612558 42.984792 -1.5
-70.612261 42.984817 0.0
-70.612469 42.984575 -0.9
-70.612705 42.984367 -6.4
-70.612897 42.984167 -8.5
-70.613108 42.983936 -10.1
-70.613458 42.983614 -11.0
-70.613969 42.983681 -11.3
-70.613758 42.983295 -8.5
-70.614119 42.982948 -8.5
-70.614336 42.982725 -9.1
-70.614772 42.982373 -11.3
-70.615066 42.982136 -13.1
-70.615400 42.981839 -12.8
-70.615905 42.981834 -13.4
-70.615852 42.981489 -14.3
-70.616200 42.981206 -19.2
-70.616644 42.980892 -21.9
-70.616813 42.980678 -26.2
-70.617391 42.980159 -23.5
-70.617633 42.979820 -23.5
-70.617969 42.979498 -22.3
-70.618166 42.979239 -21.0
-70.617994 42.979073 -19.2
-70.618447 42.978992 -18.6
-70.618619 42.978748 -15.8
-70.618891 42.978484 -14.6
-70.618758 42.978303 -14.0
-70.619086 42.978214 -14.3
-70.619480 42.977823 -15.8
-70.619641 42.977578 -11.6
-70.619833 42.977275 -10.1
-70.620113 42.977000 -19.5
-70.619625 42.976839 -18.6
-70.619330 42.976556 -19.8
-70.619547 42.976273 -19.5
-70.619888 42.975892 -19.5
-70.618933 42.976561 -19.2
-70.618863 42.975578 -18.3
-70.619191 42.975350 -18.9
-70.619169 42.976798 -18.6
-70.618772 42.976817 -15.5
-70.618952 42.977031 -14.0
-70.618769 42.977231 -12.2
-70.618588 42.977453 -7.6
-70.618722 42.977648 -5.2
-70.619044 42.977511 -8.5
-70.619052 42.977748 -11.3
-70.618419 42.977720 -1.8
-70.618258 42.977936 -7.6
-70.618252 42.978111 -10.1
-70.617947 42.977975 -5.8
-70.617908 42.978264 -12.2
-70.617672 42.978486 -13.1
-70.617352 42.978878 -17.1
-70.617536 42.979036 -18.6
-70.617152 42.979136 -18.9
-70.616877 42.979409 -20.4
-70.616994 42.979609 -21.0
-70.617450 42.979584 -22.3
-70.616677 42.979642 -21.3
-70.616400 42.979925 -22.3
-70.616158 42.980167 -22.9
-70.615775 42.980161 -22.9
-70.616405 42.980370 -22.6
-70.615741 42.980600 -21.0
-70.615325 42.980878 -17.7
-70.615777 42.981073 -18.3
-70.615302 42.981109 -14.0
-70.615047 42.981361 -12.8
-70.614777 42.981628 -12.2
-70.614466 42.981884 -11.0
-70.614658 42.982139 -11.0
-70.614225 42.982075 -10.1
-70.614305 42.982242 -9.8
-70.613955 42.982328 -8.2
-70.614047 42.982575 -6.7
-70.613741 42.982573 -5.8
-70.613450 42.982850 -4.0
-70.613236 42.982998 -2.7
-70.613008 42.983053 -3.0
-70.613008 42.983225 -3.7
-70.613380 42.983317 -7.0
-70.612736 42.983475 -5.2
-70.612416 42.983670 -11.3
-70.612127 42.983520 -3.7
-70.612191 42.983825 -12.2
-70.612558 42.983953 -10.7
-70.611813 42.984023 -14.9
-70.611383 42.984217 -13.4
-70.611322 42.984445 -1.2
-70.611566 42.984478 -1.8
-70.611597 42.984614 -0.3
-70.611827 42.984600 -1.5
-70.610933 42.984436 -16.5
-70.610763 42.984259 -13.4
-70.613627 42.982370 -4.0
-70.613383 42.982089 -0.3
-70.613602 42.981856 -3.7
-70.613894 42.981923 -6.7
-70.613736 42.981667 -6.4
-70.613936 42.981434 -12.2
-70.614269 42.981111 -13.1
-70.614483 42.980764 -14.3
-70.614858 42.980731 -16.5
-70.614302 42.980536 -15.2
-70.614769 42.980431 -20.4
-70.614950 42.980195 -21.0
-70.615102 42.980017 -22.6
-70.615330 42.979970 -22.9
-70.615361 42.979714 -18.6
-70.615561 42.979450 -14.3
-70.616050 42.979386 -18.0
-70.615422 42.979256 -14.6
-70.615777 42.979203 -8.5
-70.616058 42.979150 -10.4
-70.615977 42.978923 -7.3
-70.616444 42.978853 -8.8
-70.615816 42.978748 -6.7
-70.616244 42.978678 -7.0
-70.616425 42.978434 -7.0
-70.616630 42.978195 -6.7
-70.616975 42.978145 -8.5
-70.616811 42.977936 -5.2
-70.617008 42.977720 -6.1
-70.617238 42.977561 -6.7
-70.617577 42.977420 -4.0
-70.617772 42.977270 -7.6
-70.617900 42.977120 -8.8
-70.618038 42.976967 -9.8
-70.617794 42.976898 -5.8
-70.617380 42.976692 -2.4
-70.617541 42.976545 -4.3
-70.617713 42.976425 -7.3
-70.617913 42.976261 -12.5
-70.617580 42.976145 -13.7
-70.617577 42.975861 -18.3
-70.617580 42.975409 -20.1
-70.617558 42.975103 -19.8
-70.617616 42.974681 -20.4
-70.617641 42.974195 -20.7
-70.617666 42.973664 -22.3
-70.617687 42.973159 -24.7
-70.617682 42.972764 -25.3
-70.617735 42.972223 -24.1
-70.617735 42.971975 -23.2
-70.617796 42.971623 -28.3
-70.617821 42.971328 -28.7
-70.617896 42.970911 -26.5
-70.617904 42.970520 -26.5
-70.617957 42.970145 -26.5
-70.618118 42.969448 -26.2
-70.618607 42.968864 -26.2
-70.618332 42.970006 -22.3
-70.618435 42.970342 -20.1
-70.618532 42.970642 -22.6
-70.618607 42.970959 -26.8
-70.618796 42.971453 -26.8
-70.618887 42.971859 -23.2
-70.619024 42.972092 -24.4
-70.619063 42.972720 -24.4
-70.619386 42.972792 -25.6
-70.619022 42.973128 -24.1
-70.618944 42.973625 -22.9
-70.618819 42.974173 -21.3
-70.618733 42.974520 -20.1
-70.618683 42.974825 -19.2
-70.618583 42.975281 -18.9
-70.618541 42.975631 -18.9
-70.618463 42.975917 -19.2
-70.618427 42.976178 -15.5
-70.618377 42.976420 -11.3
-70.618441 42.977061 -12.2
-70.618263 42.977367 -9.1
-70.618061 42.977534 -8.2
-70.617652 42.977798 -5.2
-70.617405 42.978242 -11.0
-70.616888 42.978923 -15.2
-70.616558 42.979284 -20.4
-70.616525 42.979486 -20.7
-70.612608 42.982081 -2.7
-70.612747 42.981936 -2.1
-70.612847 42.981753 -4.9
-70.613297 42.981695 -4.0
-70.613055 42.981473 -7.9
-70.613294 42.981156 -12.8
-70.613630 42.980698 -12.8
-70.613830 42.980406 -15.2
-70.613986 42.980189 -17.4
-70.614177 42.979923 -20.1
-70.614644 42.979814 -21.0
-70.614105 42.979642 -17.7
-70.614458 42.979542 -15.8
-70.614658 42.979309 -10.7
-70.614780 42.979117 -6.4
-70.614886 42.978956 -1.8
-70.615836 42.976845 -0.3
-70.616077 42.976600 -5.2
-70.616102 42.976139 -9.4
-70.616075 42.975786 -11.0
-70.616058 42.975450 -13.4
-70.615990 42.975036 -13.4
-70.615999 42.974711 -9.4
-70.615918 42.974142 -11.6
-70.615887 42.973817 -13.7
-70.615868 42.973489 -14.3
-70.615768 42.973220 -18.3
-70.615765 42.972845 -18.6
-70.615685 42.972256 -19.5
-70.615635 42.971750 -29.6
-70.615493 42.970778 -31.1
-70.616054 42.970667 -26.8
-70.616821 42.970478 -21.3
-70.617299 42.970339 -24.1
-70.617262 42.969706 -24.1
-70.617287 42.969320 -28.3
-70.617374 42.968942 -36.0
-70.617371 42.968311 -39.6
-70.614687 42.969911 -36.9
-70.614512 42.970478 -35.1
-70.614346 42.971070 -25.3
-70.614279 42.971423 -21.0
-70.614193 42.971711 -14.0
-70.614096 42.972089 -15.2
-70.614004 42.972381 -10.1
-70.613868 42.972731 -11.9
-70.613765 42.973039 -7.0
-70.613718 42.973314 -4.6
-70.613897 42.978878 -4.9
-70.614158 42.979000 -6.1
-70.614411 42.979031 -8.8
-70.614008 42.979161 -7.9
-70.613788 42.979431 -11.3
-70.613613 42.979661 -15.2
-70.613430 42.979898 -15.8
-70.613230 42.980081 -14.9
-70.612880 42.980514 -14.0
-70.612577 42.980717 -10.1
-70.612394 42.980900 -5.2
-70.612219 42.981095 -3.7
-70.611977 42.981311 -0.9
-70.612541 42.981406 -6.4
-70.611688 42.981070 -1.2
-70.611163 42.981017 -0.6
-70.611344 42.980959 -1.5
-70.611333 42.980745 -5.8
-70.611516 42.980542 -9.4
-70.611716 42.980309 -11.3
-70.611944 42.980053 -14.3
-70.612358 42.979673 -9.1
-70.612513 42.979373 -10.4
-70.612738 42.979056 -5.8
-70.612950 42.978817 -3.0
-70.613216 42.978542 -0.3
-70.611560 42.978598 -1.2
-70.611385 42.978800 -5.8
-70.611262 42.979031 -6.4
-70.611007 42.979300 -7.0
-70.610837 42.979617 -11.9
-70.610574 42.979889 -15.5
-70.610418 42.980100 -12.8
-70.610246 42.980336 -8.2
-70.610082 42.980603 -3.0
-70.610021 42.980703 -2.1
-70.609062 42.980317 -0.3
-70.609168 42.980131 -5.5
-70.609340 42.979989 -5.2
-70.609585 42.979739 -4.3
-70.609857 42.979528 -5.5
-70.610199 42.979134 -6.4
-70.610404 42.978875 -7.0
-70.610568 42.978595 -7.9
-70.610782 42.978314 -6.7
-70.611087 42.978025 -2.1
-70.611257 42.977767 -0.9
-70.610210 42.978523 -5.8
-70.609296 42.979384 -1.8
-70.608029 42.980061 -5.2
-70.607632 42.979903 -1.5
-70.607243 42.979734 -1.8
-70.606765 42.979536 -4.0
-70.606251 42.979353 -4.3
-70.605562 42.979039 -7.3
-70.605190 42.978856 -10.1
-70.604860 42.978734 -11.3
-70.604424 42.978425 -14.0
-70.604129 42.978150 -27.1
-70.602796 42.976956 -39.9
-70.603235 42.977178 -39.9
-70.603629 42.977417 -35.4
-70.604026 42.977706 -30.8
-70.604368 42.977917 -25.0
-70.604749 42.978228 -12.2
-70.605162 42.978425 -9.4
-70.604965 42.978017 -18.0
-70.604749 42.977595 -29.3
-70.604532 42.977173 -34.4
-70.604310 42.976750 -36.3
-70.604107 42.976325 -40.8
-70.603860 42.975967 -38.1
-70.603676 42.975495 -38.7
-70.604068 42.975759 -39.0
-70.604476 42.976028 -37.2
-70.604912 42.976323 -36.3
-70.605596 42.976725 -23.8
-70.606082 42.977025 -9.8
-70.606043 42.976820 -14.0
-70.605940 42.976411 -23.8
-70.605901 42.975992 -33.5
-70.605804 42.975534 -35.7
-70.605693 42.975073 -38.1
-70.605626 42.974636 -39.3
-70.606096 42.974909 -38.1
-70.606574 42.975178 -36.3
-70.606929 42.975403 -34.4
-70.607296 42.975631 -25.6
-70.607682 42.975889 -14.0
-70.608282 42.976295 -9.1
-70.608687 42.976595 -5.2
-70.608885 42.976753 -6.7
-70.609079 42.976892 -5.2
-70.609399 42.977081 -2.4
-70.609629 42.977281 -4.0
-70.609940 42.977509 -1.8
-70.610657 42.977931 -7.3
-70.610499 42.977764 -5.8
-70.610315 42.977606 -5.5
-70.610190 42.977442 -2.7
-70.610021 42.977289 -3.7
-70.609615 42.976895 -5.2
-70.609290 42.976603 -8.2
-70.608899 42.976136 -7.0
-70.608790 42.975839 -13.7
-70.608640 42.975578 -17.7
-70.608424 42.975106 -29.9
-70.608171 42.974606 -13.1
-70.607924 42.974098 -36.3
-70.607685 42.973603 -38.1
-70.608065 42.973823 -36.3
-70.608476 42.974073 -35.4
-70.608818 42.974311 -33.5
-70.609321 42.974606 -27.1
-70.609782 42.974934 -20.4
-70.610157 42.974995 -15.5
-70.610015 42.974439 -23.2
-70.609843 42.973992 -30.5
-70.609774 42.973511 -34.1
-70.609651 42.973042 -35.7
-70.609576 42.972617 -36.3
-70.609440 42.972153 -38.1
-70.610149 42.972609 -36.9
-70.610685 42.973023 -34.4
-70.611096 42.973356 -30.8
-70.611482 42.973656 -12.8
-70.611799 42.973892 -11.3
-70.612212 42.972467 -8.8
-70.612171 42.972225 -18.6
-70.612099 42.971961 -30.2
-70.612018 42.971645 -36.9
-70.611937 42.971350 -36.3
-70.611851 42.971023 -39.0
-70.612457 42.971709 -38.1
-70.612940 42.972367 -12.8
-70.613251 42.972739 -7.9
-70.613407 42.973009 -8.2
-70.614440 42.972875 -9.4
-70.614801 42.972642 -12.5
-70.615185 42.972364 -15.2
-70.614876 42.969289 -40.5
-70.615546 42.969539 -37.8
-70.616026 42.969711 -28.3
-70.616560 42.969909 -14.6
-70.616915 42.970053 -19.5
-70.618760 42.969192 -22.6
-70.619157 42.969114 -22.6
-70.619362 42.968970 -23.2
-70.621901 42.968853 -17.4
-70.621654 42.969023 -14.9
-70.621093 42.969386 -18.3
-70.620390 42.969781 -17.7
-70.619596 42.970292 -18.3
-70.618882 42.970656 -25.9
-70.618296 42.970906 -25.0
-70.617193 42.971411 -29.6
-70.617949 42.972434 -23.2
-70.618451 42.972136 -22.6
-70.619437 42.971575 -21.3
-70.620727 42.970845 -17.1
-70.621586 42.970350 -16.5
-70.622305 42.969931 -13.1
-70.623088 42.969425 -3.4
-70.623763 42.969064 -3.4
-70.624000 42.969817 -7.9
-70.622377 42.970909 -16.8
-70.621816 42.971220 -22.6
-70.620772 42.971917 -25.9
-70.618533 42.973361 -23.8
-70.618141 42.973692 -23.2
-70.617250 42.974267 -20.4
-70.616986 42.974520 -19.5
-70.616722 42.974770 -19.2
-70.616436 42.975014 -18.3
-70.615716 42.975559 -10.1
-70.615363 42.975856 -5.2
-70.615113 42.976095 -1.2
-70.616397 42.976359 -10.7
-70.616705 42.976131 -15.8
-70.617019 42.975898 -18.3
-70.617263 42.975667 -19.2
-70.617886 42.975189 -20.4
-70.618194 42.974920 -20.7
-70.619566 42.973759 -22.9
-70.620458 42.973231 -23.5
-70.620819 42.973028 -24.1
-70.621141 42.972786 -21.6
-70.621947 42.972289 -16.5
-70.622313 42.972023 -21.9
-70.622583 42.971861 -20.4
-70.622852 42.971628 -18.0
-70.623566 42.971209 -18.9
-70.624175 42.970789 -18.6
-70.625452 42.971025 -14.9
-70.623363 42.972723 -21.9
-70.622616 42.973120 -15.5
-70.622325 42.973353 -19.2
-70.621400 42.973803 -22.6
-70.621022 42.974045 -22.3
-70.620552 42.974331 -21.6
-70.619541 42.975070 -19.8
-70.620811 42.975520 -19.8
-70.621486 42.975089 -20.7
-70.621780 42.974789 -21.3
-70.623563 42.973403 -10.7
-70.623780 42.973131 -17.1
-70.625452 42.972003 -24.1
-70.626211 42.971509 -22.9
-70.626922 42.971011 -18.0
-70.627130 42.971495 -24.7
-70.623825 42.974492 -21.6
-70.623455 42.974828 -20.4
-70.622369 42.975764 -19.8
-70.621586 42.976250 -19.8
-70.620950 42.976009 -20.4
-70.621186 42.976486 -20.4
-70.622541 42.976334 -19.5
-70.623311 42.975875 -19.2
-70.623769 42.975489 -18.3
-70.627358 42.974727 -14.9
-70.626561 42.975149 -11.0
-70.626138 42.975458 -13.4
-70.623486 42.976634 -14.3
-70.623697 42.976853 -5.5
-70.623294 42.976836 -14.3
-70.622155 42.976895 -20.1
-70.621752 42.976884 -19.5
-70.621347 42.976864 -19.5
-70.619425 42.977320 -10.7
-70.620811 42.977611 -17.4
-70.621302 42.977650 -18.3
-70.621541 42.977553 -17.4
-70.621944 42.977584 -16.8
-70.622808 42.977642 -18.0
-70.624005 42.977702 -11.9
-70.625025 42.978555 -5.8
-70.624400 42.978355 -13.4
-70.623358 42.978252 -17.4
-70.622608 42.978183 -18.0
-70.621672 42.978106 -16.5
-70.621647 42.978292 -14.3
-70.621238 42.977873 -16.8
-70.621227 42.978281 -11.0
-70.621127 42.978459 -5.2
-70.620472 42.978778 -9.4
-70.620716 42.978620 -6.4
-70.621063 42.978728 -7.3
-70.621427 42.978792 -7.0
-70.622411 42.979141 -18.9
-70.623219 42.979413 -20.1
-70.623569 42.979327 -20.4
-70.624205 42.979466 -20.1
-70.621650 42.979030 -18.3
-70.621327 42.979077 -17.7
-70.620650 42.979214 -16.8
-70.620130 42.979311 -16.8
-70.620150 42.979486 -16.8
-70.620794 42.979577 -17.4
-70.621425 42.980008 -22.6
-70.621822 42.979883 -20.4
-70.622638 42.980172 -21.9
-70.623238 42.980385 -22.3
-70.623952 42.980622 -22.3
-70.624919 42.980980 -21.6
-70.624047 42.982230 -29.0
-70.623594 42.982022 -25.9
-70.623005 42.981749 -28.0
-70.622227 42.981399 -28.3
-70.621450 42.981105 -27.7
-70.620747 42.980841 -26.2
-70.620133 42.980580 -23.8
-70.619752 42.980574 -24.1
-70.619458 42.980336 -23.8
-70.619075 42.980850 -25.0
-70.618600 42.981003 -24.7
-70.618552 42.981253 -24.4
-70.618972 42.981458 -24.4
-70.620355 42.982044 -24.7
-70.621286 42.982472 -23.5
-70.622661 42.983077 -27.1
-70.623180 42.983310 -26.8
-70.622777 42.983597 -21.3
-70.618091 42.981974 -19.8
-70.613361 42.979464 -17.7
-70.612880 42.979292 -9.8
-70.612055 42.979070 -8.5
-70.610976 42.978770 -7.6
-70.610249 42.979553 -7.6
-70.611201 42.979745 -13.1
-70.611686 42.979834 -14.6
-70.612497 42.980000 -14.6
-70.608940 42.979914 -7.3
-70.609749 42.980317 -9.1
-70.610446 42.980584 -8.5
-70.610877 42.980742 -6.4
-70.615150 42.982584 -12.2
-70.614966 42.982925 -10.7
-70.616850 42.983383 -12.2
-70.617811 42.983741 -11.3
-70.618388 42.983983 -14.0
-70.619172 42.984244 -12.5
-70.618797 42.984708 -8.2
-70.618408 42.984816 -7.0
-70.617547 42.983980 -11.6
-70.616736 42.983588 -12.2
-70.615002 42.984381 -8.2
-70.610413 42.984664 -12.8
-70.609652 42.983828 -8.2
-70.610155 42.983828 -8.2
-70.610222 42.984050 -14.3
-70.610019 42.984289 -15.2
-70.609894 42.984673 -11.9
-70.609980 42.984861 -11.6
-70.609533 42.985075 -8.5
-70.609041 42.985292 -13.4
-70.609736 42.985381 -7.9
-70.609769 42.985756 -7.0
-70.609816 42.986145 -5.5
-70.609761 42.986689 -4.6
-70.609488 42.986375 -7.3
-70.609186 42.986078 -8.2
-70.608900 42.985736 -9.1
-70.608586 42.985500 -16.5
-70.608355 42.985239 -20.4
-70.607941 42.984809 -20.4
-70.607433 42.984198 -15.5
-70.607466 42.984531 -19.5
-70.607466 42.984898 -27.1
-70.607480 42.985186 -26.5
-70.607505 42.985450 -17.7
-70.607466 42.985692 -19.2
-70.607458 42.985998 -24.4
-70.607077 42.986061 -24.1
-70.606647 42.985920 -15.8
-70.606075 42.985717 -28.7
-70.605525 42.985545 -32.0
-70.604893 42.985309 -32.0
-70.604318 42.985075 -28.7
-70.603712 42.984900 -18.6
-70.603221 42.984661 -14.6
-70.602815 42.985023 -19.2
-70.602074 42.985348 -25.3
-70.600826 42.985625 -19.2
-70.600232 42.985689 -25.3
-70.599601 42.985809 -28.7
-70.598829 42.985920 -31.7
-70.597776 42.986186 -38.1
-70.598329 42.986420 -35.4
-70.598915 42.986709 -31.7
-70.599510 42.987000 -30.5
-70.600107 42.987231 -29.6
-70.600693 42.987514 -29.6
-70.601212 42.987800 -30.5
-70.601910 42.988081 -27.7
-70.601793 42.987223 -27.1
-70.601724 42.986428 -23.8
-70.601657 42.985548 -16.5
-70.601626 42.985023 -11.3
-70.601576 42.984639 -9.8
-70.601079 42.984239 -3.7
-70.600746 42.983861 -3.7
-70.600440 42.983609 -3.0
-70.600215 42.983370 -10.1
-70.599918 42.983114 -7.3
-70.599601 42.982775 -8.5
-70.599193 42.982400 -15.2
-70.598835 42.982095 -18.9
-70.598343 42.981623 -23.8
-70.597943 42.981231 -35.1
-70.597437 42.980825 -45.4
-70.597154 42.980486 -47.9
-70.597904 42.980570 -45.4
-70.598596 42.980700 -39.9
-70.599279 42.980823 -29.3
-70.599935 42.980931 -14.6
-70.600482 42.981014 -11.3
-70.601029 42.981006 -7.9
-70.600985 42.980617 -17.7
-70.600896 42.980214 -25.9
-70.600810 42.979775 -31.1
-70.600735 42.979270 -40.5
-70.600646 42.978781 -41.8
-70.621544 42.983163 -21.3
-70.613202 42.984575 -5.5
-70.612113 42.984725 -0.9
-70.609133 42.985911 -3.7
-70.615413 42.978717 -1.2
-70.615258 42.978878 -2.7
-70.615455 42.978945 -6.4
-70.616300 42.978070 -0.9
-70.614293 42.966875 -38.7
