-71.052393 42.390886 -1.5
-71.052596 42.390741 -2.1
-71.052813 42.390550 -2.4
-71.054068 42.389108 -1.5
-71.054313 42.389064 -3.4
-71.053896 42.390030 -9.4
-71.053785 42.390075 -9.1
-71.053704 42.390211 -9.1
-71.053960 42.389905 -9.1
-71.053096 42.390750 -7.6
-71.053477 42.390380 -8.2
-71.053307 42.390558 -7.9
-71.053140 42.390411 -6.4
-71.052907 42.390911 -7.3
-71.054663 42.389264 -8.5
-71.054546 42.389372 -8.2
-71.054299 42.389575 -8.5
-71.054118 42.389744 -8.2
-71.054477 42.389039 -4.6
-71.053265 42.390100 -3.7
-71.053079 42.390314 -2.4
-71.052952 42.390439 -2.7
-71.054815 42.389128 -9.1
-71.053429 42.389933 -4.6
-71.053196 42.389797 0.0
-71.053590 42.389650 -2.7
-71.054649 42.389055 -7.9
-71.053624 42.389755 -4.9
-71.053529 42.389836 -5.5
-71.054354 42.389308 -8.2
-71.054490 42.389194 -7.6
-71.053874 42.389714 -9.1
-71.054068 42.389586 -8.2
-71.054202 42.389441 -8.8
-71.053432 42.390150 -7.6
-71.053571 42.390000 -8.8
-71.053724 42.389861 -8.5
-71.053263 42.390272 -6.4
-71.052838 42.390725 -5.8
-71.052668 42.390889 -5.2
-71.052690 42.390808 -6.7
-71.052993 42.390578 -6.1
-71.053977 42.389430 -3.7
-71.054157 42.389266 -3.4
-71.054329 42.389178 -4.0
-71.052554 42.390989 -4.9
-71.052718 42.391094 -5.5
-71.052485 42.391197 -4.6
-71.053740 42.389458 -2.4
-71.053893 42.389300 -1.8
-71.053502 42.389414 0.0
-71.053657 42.389244 0.0
-71.053943 42.389544 -4.9
-71.053793 42.389608 -4.3
-71.052718 42.391000 -5.5
-71.053821 42.389072 0.0
-71.053621 42.388997 0.0
-71.053493 42.389139 0.0
-71.052340 42.390169 1.2
-71.053254 42.389419 0.3
-71.052999 42.389725 0.9
-71.053140 42.389572 0.6
-71.052699 42.389928 0.9
-71.052877 42.389814 0.9
-71.053260 42.389589 0.6
-71.053354 42.389605 0.3
-71.052532 42.390047 0.9
-71.052415 42.390669 0.6
-71.053054 42.389980 0.6
-71.052918 42.390169 0.6
-71.052771 42.390350 0.6
-71.052604 42.390491 0.6
-71.053363 42.389289 0.3
-71.053399 42.389453 0.3
-71.050557 42.394278 0.3
-71.050121 42.394178 0.6
-71.050190 42.394130 0.3
-71.050435 42.394144 0.3
-71.050038 42.393755 0.3
-71.050046 42.392816 0.3
-71.050304 42.392605 1.2
-71.050452 42.392514 0.6
-71.050574 42.392364 0.6
-71.050774 42.392214 0.6
-71.050915 42.392039 0.3
-71.050310 42.392061 0.3
-71.049852 42.392030 0.6
-71.049999 42.391933 0.6
-71.050163 42.391828 0.6
-71.049649 42.392114 0.9
-71.049793 42.392372 0.6
-71.050640 42.394447 0.3
-71.049899 42.392955 0.0
-71.049940 42.393397 -0.6
-71.049921 42.393105 -0.3
-71.049993 42.393258 -0.6
-71.049899 42.393233 -0.6
-71.049990 42.392244 -0.6
-71.050052 42.392269 0.0
-71.049646 42.393011 0.0
-71.049577 42.392855 0.0
-71.049799 42.392611 -0.6
-71.049815 42.392741 -0.3
-71.050124 42.393886 -0.6
-71.050146 42.394008 0.0
-71.050238 42.393866 -0.6
-71.050313 42.393989 0.0
-71.050121 42.393694 -0.6
-71.050027 42.393433 -0.6
-71.049979 42.393550 -0.3
-71.050185 42.392128 0.0
-71.050543 42.392094 -0.6
-71.050290 42.392186 -0.9
-71.050752 42.391972 0.0
-71.050499 42.391900 -0.9
-71.050607 42.391916 -0.3
-71.051088 42.391928 0.0
-71.050977 42.391897 0.0
-71.051321 42.391783 -0.9
-71.050746 42.391805 -0.6
-71.050865 42.391808 -0.9
-71.050704 42.394386 -0.6
-71.050849 42.394466 0.0
-71.050482 42.394391 -0.3
-71.050452 42.394286 -0.6
-71.050215 42.394214 0.0
-71.050285 42.394289 0.0
-71.049654 42.392225 0.3
-71.050190 42.392000 -1.2
-71.049940 42.392122 -0.6
-71.051243 42.394744 -0.3
-71.051735 42.394758 0.0
-71.051085 42.394591 0.0
-71.051293 42.394680 0.0
-71.051518 42.394675 0.0
-71.052154 42.394894 0.0
-71.052079 42.395025 0.0
-71.051427 42.394803 -0.3
-71.051535 42.394803 -0.3
-71.051707 42.394878 -0.3
-71.051857 42.394911 0.0
-71.050118 42.397266 1.2
-71.049927 42.397189 1.2
-71.049774 42.397097 1.2
-71.051885 42.397219 1.8
-71.052038 42.397136 1.2
-71.052124 42.397258 0.9
-71.052154 42.397061 1.5
-71.052585 42.396769 1.2
-71.052810 42.396808 0.9
-71.052457 42.396991 1.2
-71.052615 42.397028 1.2
-71.052460 42.396872 1.2
-71.052318 42.397164 0.9
-71.052329 42.396969 0.9
-71.052707 42.396700 0.9
-71.052810 42.396544 1.2
-71.052915 42.396358 1.5
-71.052832 42.395214 0.9
-71.052688 42.395125 0.3
-71.052549 42.395036 0.3
-71.052415 42.394989 0.6
-71.052960 42.395569 0.3
-71.053088 42.395697 0.9
-71.053215 42.395633 0.6
-71.053115 42.395489 1.5
-71.053104 42.395855 1.2
-71.053013 42.395775 0.9
-71.053074 42.396036 1.5
-71.053029 42.395925 1.2
-71.053204 42.396130 0.9
-71.052971 42.396078 1.2
-71.053046 42.396205 0.9
-71.052804 42.395458 0.3
-71.052929 42.395297 1.2
-71.052371 42.395169 0.3
-71.053202 42.395778 0.0
-71.052290 42.394975 0.0
-71.052738 42.395041 0.0
-71.052624 42.395294 0.0
-71.053227 42.395941 0.3
-71.050396 42.397394 1.5
-71.050285 42.397364 0.9
-71.049657 42.397322 0.6
-71.049827 42.397389 0.6
-71.050568 42.397683 1.2
-71.050649 42.397528 0.9
-71.049974 42.397453 0.3
-71.050135 42.397530 0.6
-71.050304 42.397608 0.6
-71.051268 42.397580 0.9
-71.051118 42.397525 0.9
-71.051271 42.397708 0.9
-71.051035 42.397733 0.9
-71.051027 42.397600 0.9
-71.050890 42.397528 0.6
-71.050782 42.397608 1.2
-71.050824 42.397730 1.5
-71.051735 42.397330 1.2
-71.051954 42.397344 0.9
-71.051827 42.397444 0.9
-71.051590 42.397405 1.5
-71.051638 42.397572 0.9
-71.051454 42.397653 0.6
-71.051421 42.397511 1.2
-71.067663 42.385666 0.6
-71.067810 42.385780 0.3
-71.068054 42.385797 0.3
-71.068321 42.385744 0.3
-71.066388 42.384841 0.9
-71.066288 42.384961 0.9
-71.066224 42.385064 0.6
-71.066465 42.384722 0.9
-71.068007 42.385711 0.6
-71.068638 42.385797 0.3
-71.066196 42.384722 0.6
-71.066293 42.384589 0.3
-71.066327 42.385747 -6.7
-71.066915 42.386183 -7.3
-71.066715 42.386069 -7.6
-71.066457 42.386022 -7.3
-71.067093 42.386119 -6.7
-71.067296 42.386147 -7.3
-71.067240 42.386039 -7.6
-71.066174 42.385994 -7.3
-71.066268 42.385528 -1.2
-71.066610 42.385561 0.0
-71.066988 42.385591 0.0
-71.067307 42.385644 0.0
-71.067546 42.386178 -7.0
-71.068832 42.386125 -5.2
-71.068577 42.386114 -0.3
-71.068149 42.385939 0.0
-71.067624 42.385869 -0.9
-71.068040 42.386030 -0.6
-71.068296 42.386072 -0.3
-71.067718 42.385961 -3.0
-71.067188 42.385850 -5.8
-71.066902 42.385800 -7.0
-71.066615 42.385780 -6.7
-71.067479 42.385914 -4.9
-71.069138 42.386141 0.0
-71.069415 42.386153 0.0
-71.069643 42.386164 0.0
-71.068963 42.385836 0.3
-71.069274 42.385880 0.3
-71.066804 42.388564 0.9
-71.067054 42.388614 1.2
-71.066946 42.388350 0.9
-71.067304 42.388391 0.9
-71.068388 42.388764 0.6
-71.066557 42.388533 0.6
-71.068015 42.388916 0.9
-71.066165 42.388786 0.9
-71.066432 42.388853 1.2
-71.067315 42.388636 0.9
-71.067529 42.388655 1.2
-71.066302 42.388664 0.9
-71.066613 42.388703 0.9
-71.066863 42.388747 1.2
-71.067149 42.388789 1.2
-71.067432 42.388825 1.2
-71.067693 42.388869 1.2
-71.066718 42.388872 1.5
-71.067040 42.388911 1.5
-71.067299 42.388969 1.5
-71.067827 42.386369 -7.5
-71.066424 42.386278 -7.5
-71.066346 42.387169 -11.6
-71.068621 42.386555 -7.0
-71.068079 42.386522 -7.0
-71.068396 42.386525 -7.0
-71.068879 42.386589 -7.0
-71.068752 42.387022 -6.7
-71.068532 42.386644 -7.0
-71.066599 42.386436 -7.0
-71.066904 42.386450 -6.7
-71.068138 42.386686 -6.7
-71.068843 42.386419 -7.6
-71.068382 42.386716 -6.7
-71.067479 42.386472 -6.4
-71.067768 42.386500 -6.7
-71.067196 42.386464 -6.4
-71.068065 42.387066 -7.0
-71.066260 42.386500 -7.6
-71.068879 42.387216 -5.5
-71.066435 42.386500 -7.0
-71.068390 42.387122 -7.0
-71.068727 42.387186 -4.9
-71.067971 42.386655 -6.4
-71.067802 42.386647 -6.7
-71.067127 42.386561 -6.4
-71.067460 42.386611 -6.4
-71.066771 42.386544 -6.7
-71.067499 42.386758 -7.0
-71.067835 42.386225 -7.3
-71.066963 42.386325 -7.6
-71.067229 42.386758 -7.0
-71.066857 42.386733 -7.0
-71.066710 42.386311 -7.6
-71.068393 42.386289 -7.3
-71.068127 42.386253 -7.0
-71.066660 42.386747 -7.0
-71.066410 42.386728 -7.0
-71.067985 42.386811 -7.0
-71.068240 42.386811 -7.3
-71.068782 42.386847 -7.3
-71.068515 42.386828 -7.3
-71.067729 42.386778 -7.0
-71.068604 42.386422 -7.6
-71.067243 42.386341 -7.6
-71.067510 42.386350 -7.6
-71.068110 42.386391 -7.6
-71.068402 42.386408 -7.9
-71.066443 42.386878 -7.0
-71.066768 42.386919 -7.0
-71.067077 42.386944 -7.0
-71.067421 42.386989 -6.7
-71.067743 42.387003 -6.4
-71.067996 42.387189 -6.1
-71.067610 42.387144 -7.0
-71.067254 42.387105 -6.7
-71.067535 42.387472 -8.8
-71.066760 42.388130 -8.8
-71.066449 42.388097 -8.8
-71.068443 42.388241 -6.4
-71.067577 42.388086 -6.1
-71.068193 42.388155 -6.4
-71.067943 42.388116 -5.8
-71.066643 42.387236 -8.2
-71.066960 42.387261 -7.9
-71.068218 42.387155 -6.1
-71.068074 42.388047 -6.1
-71.066510 42.387194 -7.6
-71.067907 42.388247 -6.1
-71.067599 42.388172 -6.1
-71.066235 42.387300 -8.2
-71.066902 42.387069 -6.4
-71.068682 42.388355 -6.1
-71.068224 42.388311 -6.1
-71.067285 42.388122 -7.0
-71.067074 42.388150 -3.7
-71.067202 42.388025 -6.7
-71.066940 42.387666 -8.8
-71.066179 42.387400 -9.1
-71.067877 42.387372 -5.5
-71.067654 42.387694 -7.6
-71.067971 42.387753 -6.7
-71.068329 42.387803 -6.4
-71.068654 42.387872 -6.4
-71.067315 42.387625 -8.8
-71.068707 42.387286 -5.2
-71.066668 42.387522 -8.5
-71.066971 42.387569 -9.4
-71.068177 42.387405 -6.1
-71.066315 42.387489 -9.1
-71.068385 42.387222 -6.4
-71.066538 42.387019 -6.1
-71.066190 42.386972 -5.5
-71.066782 42.387366 -8.2
-71.068827 42.388461 -6.4
-71.068529 42.388380 -5.8
-71.067193 42.387419 -8.5
-71.068777 42.387483 -4.9
-71.068457 42.387444 -5.2
-71.067202 42.387758 -9.1
-71.068640 42.387483 -4.6
-71.067518 42.387864 -6.1
-71.068240 42.388953 -4.3
-71.066285 42.388511 -5.5
-71.066452 42.387316 -8.5
-71.067260 42.387300 -8.5
-71.067613 42.388411 0.0
-71.067977 42.388439 -4.6
-71.068793 42.388144 -6.1
-71.067546 42.387325 -8.5
-71.068413 42.388091 -6.4
-71.068346 42.388475 -5.2
-71.068624 42.388783 -4.0
-71.068749 42.388805 -5.5
-71.066865 42.388003 -8.5
-71.066624 42.388022 -9.1
-71.066321 42.387975 -8.5
-71.066660 42.387836 -9.1
-71.067029 42.387880 -8.8
-71.067724 42.387994 -6.4
-71.067363 42.387928 -6.4
-71.068302 42.387583 -6.1
-71.068660 42.387636 -4.6
-71.067910 42.387536 -6.4
-71.066246 42.388291 -8.8
-71.066593 42.388303 -6.1
-71.066315 42.387797 -8.8
-71.070190 42.387575 -1.8
-71.071088 42.387980 -1.5
-71.070327 42.387650 -1.2
-71.071424 42.387997 -1.2
-71.070565 42.387680 -1.2
-71.069754 42.387803 -2.4
-71.070082 42.387850 -2.4
-71.070432 42.387897 -2.4
-71.070774 42.387933 -1.2
-71.070521 42.388900 -3.7
-71.069804 42.388800 -6.4
-71.070324 42.388897 -6.1
-71.069913 42.388900 -6.4
-71.069577 42.388725 -6.4
-71.070704 42.388761 -2.7
-71.070113 42.388894 -6.4
-71.071182 42.388805 -4.0
-71.069432 42.387761 -4.6
-71.069046 42.387691 -5.8
-71.069138 42.388830 -4.6
-71.071713 42.387864 -0.3
-71.071427 42.387816 -0.6
-71.070993 42.388922 -2.4
-71.071143 42.388936 -3.4
-71.071379 42.388139 -1.8
-71.070746 42.388903 -1.8
-71.071329 42.388230 -1.5
-71.070832 42.388816 -2.1
-71.070946 42.388791 -3.4
-71.071143 42.387778 -0.9
-71.070888 42.387730 -1.2
-71.069485 42.388872 -7.3
-71.070515 42.388786 -2.4
-71.068946 42.388819 -0.6
-71.069440 42.388250 -6.1
-71.069099 42.388205 -6.1
-71.069932 42.388350 -3.7
-71.069702 42.388303 -4.6
-71.070449 42.388450 -2.4
-71.070188 42.388400 -2.4
-71.070760 42.388511 -2.7
-71.070985 42.388603 -2.4
-71.070260 42.388747 -3.7
-71.070027 42.388669 -6.1
-71.070568 42.388611 -2.1
-71.070829 42.388655 -2.4
-71.069382 42.388603 -6.1
-71.069127 42.388536 -6.4
-71.069340 42.388141 -6.4
-71.069004 42.388550 -6.4
-71.069718 42.388628 -6.1
-71.069321 42.387530 -4.0
-71.070971 42.388458 -2.4
-71.070179 42.388566 -4.9
-71.070396 42.388353 -2.1
-71.070796 42.388405 -3.4
-71.071140 42.388455 -2.1
-71.069204 42.387794 -5.2
-71.069246 42.388439 -6.1
-71.068977 42.388408 -6.4
-71.069543 42.388486 -6.4
-71.069860 42.388528 -6.1
-71.071193 42.388350 -3.4
-71.069010 42.387928 -6.1
-71.069302 42.387980 -5.8
-71.069654 42.388053 -4.3
-71.069968 42.388133 -3.4
-71.070282 42.388200 -2.7
-71.070613 42.388272 -2.4
-71.070957 42.388339 -2.7
-71.069874 42.387564 -1.5
-71.070021 42.387600 -1.2
-71.069710 42.387569 -1.5
-71.069538 42.387555 -2.7
-71.069290 42.386880 -0.6
-71.069557 42.386886 -0.6
-71.070254 42.386916 0.0
-71.070013 42.386903 0.0
-71.070452 42.386914 0.0
-71.069779 42.386897 -0.3
-71.069135 42.387264 -4.3
-71.069104 42.387353 -5.5
-71.070810 42.387608 -0.9
-71.070454 42.387525 -1.5
-71.070640 42.387555 -1.5
-71.070152 42.387458 -1.5
-71.070290 42.387508 -1.5
-71.069732 42.387361 -1.5
-71.069946 42.387419 -1.5
-71.069093 42.386433 -7.0
-71.068963 42.387416 -5.5
-71.069432 42.387394 -1.8
-71.069382 42.387303 -1.5
-71.069346 42.386450 -0.3
-71.069565 42.386450 0.0
-71.070035 42.387355 -1.2
-71.070302 42.387364 -1.2
-71.070560 42.387383 -0.6
-71.071213 42.387561 -0.3
-71.071690 42.387716 -0.6
-71.069154 42.386591 -4.6
-71.071296 42.387680 -0.3
-71.070996 42.387622 -0.6
-71.071185 42.387664 -0.6
-71.068990 42.386953 -1.5
-71.069335 42.387005 -0.6
-71.069602 42.387078 -0.6
-71.069665 42.386616 0.0
-71.069957 42.386644 0.0
-71.071038 42.387391 0.0
-71.071290 42.387400 0.0
-71.071474 42.387419 0.0
-71.069810 42.386486 0.0
-71.070113 42.387194 -0.3
-71.070793 42.387378 0.0
-71.070627 42.387300 0.0
-71.070390 42.387233 0.0
-71.069868 42.387133 -0.6
-71.069093 42.387600 -5.5
-71.069663 42.388847 -5.8
-71.069404 42.386641 -0.2
-71.069074 42.387511 -5.2
-71.069063 42.386869 -2.1
-71.072732 42.388872 -3.0
-71.072954 42.388853 -2.7
-71.072852 42.388647 -1.5
-71.072763 42.388494 0.0
-71.072674 42.388336 -1.5
-71.072665 42.388772 -3.4
-71.072565 42.388891 -3.0
-71.071827 42.387747 -0.3
-71.068007 42.389166 -4.0
-71.068735 42.389383 -4.9
-71.068521 42.388986 0.0
-71.067557 42.389014 1.5
-71.068554 42.389328 1.2
-71.067807 42.389091 1.2
-71.068299 42.389250 0.9
-71.068777 42.389053 1.5
-71.068777 42.389180 1.2
-71.071690 42.391078 0.6
-71.069963 42.389678 0.6
-71.071340 42.390536 0.6
-71.071463 42.390714 0.6
-71.071574 42.390903 0.6
-71.071690 42.389703 -6.4
-71.071485 42.389591 -6.7
-71.071702 42.390072 -3.4
-71.071582 42.389894 -3.4
-71.071454 42.390050 -0.6
-71.071538 42.390158 -0.6
-71.071635 42.390283 -0.6
-71.071702 42.390414 -0.6
-71.071190 42.390386 0.3
-71.069379 42.389453 -7.9
-71.069613 42.389472 -5.5
-71.069446 42.389125 -7.3
-71.069602 42.389136 -7.9
-71.069707 42.389050 -7.0
-71.069938 42.389172 -6.1
-71.069796 42.389258 -5.8
-71.069929 42.389480 0.0
-71.070307 42.389553 -3.7
-71.069035 42.389075 -5.2
-71.070204 42.389408 -5.5
-71.070360 42.389439 -2.4
-71.069021 42.389244 -4.0
-71.069043 42.389419 -9.8
-71.069502 42.389289 -7.3
-71.069918 42.389366 -5.2
-71.070252 42.389005 -6.4
-71.070671 42.389008 -2.4
-71.070577 42.389469 -5.2
-71.070732 42.389483 -3.7
-71.070638 42.389553 -5.2
-71.070765 42.389225 -7.0
-71.070288 42.389178 -6.4
-71.070440 42.389094 -6.7
-71.070552 42.389200 -7.3
-71.070904 42.389275 -6.4
-71.071193 42.389428 -6.1
-71.071779 42.390572 -0.9
-71.072588 42.390653 -6.1
-71.072518 42.390494 -6.7
-71.072063 42.391003 -0.9
-71.072785 42.390572 -6.4
-71.072138 42.391175 -1.2
-71.072252 42.391330 -1.5
-71.072685 42.390369 -6.7
-71.072471 42.390308 -6.7
-71.071843 42.390705 -0.9
-71.071924 42.390875 -0.9
-71.072015 42.391739 -1.2
-71.072468 42.391719 -6.1
-71.072085 42.391650 -0.3
-71.072277 42.391491 -2.7
-71.072404 42.391586 -6.1
-71.073185 42.391005 -6.7
-71.073035 42.390969 -6.1
-71.072790 42.390944 -6.7
-71.072965 42.390775 -6.4
-71.072849 42.391283 -6.7
-71.071771 42.389978 -4.0
-71.072332 42.389911 -6.7
-71.073013 42.391208 -6.7
-71.073157 42.391150 -6.7
-71.072207 42.390764 -1.5
-71.072093 42.390572 -1.2
-71.072343 42.390808 -3.4
-71.071963 42.390405 -0.9
-71.072063 42.390364 -0.6
-71.071918 42.390166 -1.5
-71.071810 42.390250 -1.5
-71.073138 42.390036 -6.7
-71.073049 42.389850 -5.8
-71.073818 42.390689 -0.6
-71.071904 42.389911 -6.4
-71.071882 42.389794 -6.4
-71.073935 42.390866 -0.6
-71.072207 42.389564 -2.1
-71.072277 42.389725 -5.2
-71.072027 42.389872 -7.0
-71.073010 42.390303 -6.4
-71.072932 42.390414 -6.7
-71.072418 42.389625 -3.7
-71.072713 42.390091 -6.7
-71.072740 42.390214 -6.4
-71.072324 42.389478 -3.0
-71.072629 42.389966 -6.4
-71.072227 42.389297 -3.0
-71.072140 42.389000 -3.7
-71.072043 42.389361 -1.8
-71.072124 42.389466 -1.8
-71.072527 42.389794 -5.5
-71.073610 42.390380 -1.8
-71.073707 42.390528 -1.5
-71.072710 42.389103 -3.0
-71.072435 42.389286 -3.0
-71.072571 42.389408 -4.0
-71.073390 42.389883 -1.5
-71.072279 42.389150 -3.4
-71.073193 42.389778 -3.0
-71.073582 42.389883 -4.9
-71.073507 42.390197 -1.2
-71.073677 42.390283 -0.6
-71.073488 42.390319 -1.8
-71.073243 42.390847 -6.7
-71.073124 42.390708 -6.7
-71.072888 42.389697 -4.0
-71.073038 42.390566 -6.4
-71.072738 42.389564 -4.0
-71.073840 42.391697 -2.4
-71.072827 42.389014 -4.0
-71.073529 42.390097 -1.2
-71.073318 42.390991 -6.4
-71.073318 42.389939 -2.1
-71.073388 42.390058 -1.8
-71.073440 42.391125 -6.1
-71.073518 42.391269 -7.0
-71.073607 42.391397 -4.9
-71.073729 42.391553 -3.0
-71.073040 42.389014 -4.0
-71.073324 42.389497 -4.3
-71.073204 42.389330 -4.0
-71.073132 42.389153 -3.7
-71.072821 42.391391 -6.7
-71.072757 42.391064 -6.4
-71.073435 42.389694 -4.0
-71.073254 42.391353 -6.4
-71.073068 42.391380 -7.0
-71.072935 42.391472 -7.0
-71.073174 42.391580 -4.3
-71.073352 42.391539 -4.9
-71.073454 42.391739 -3.0
-71.073199 42.391683 -3.0
-71.072913 42.391083 -6.7
-71.073107 42.389508 -4.0
-71.072946 42.389289 -4.0
-71.072285 42.390030 -6.4
-71.072568 42.390197 -6.4
-71.072349 42.390216 -6.1
-71.072382 42.390130 -6.7
-71.072352 42.390505 -6.7
-71.072446 42.390636 -6.4
-71.072043 42.390047 -6.4
-71.072143 42.390205 -6.4
-71.072252 42.390361 -6.4
-71.072479 42.390011 -6.4
-71.072527 42.390778 -6.4
-71.072652 42.390875 -6.7
-71.072613 42.391155 -6.4
-71.072596 42.391372 -6.4
-71.072754 42.391586 -6.4
-71.072429 42.391303 -6.1
-71.072488 42.391178 -6.1
-71.072679 42.391480 -6.1
-71.072360 42.390972 -2.4
-71.072899 42.391655 -3.7
-71.072582 42.391611 -6.4
-71.074477 42.391536 0.0
-71.074293 42.391664 -0.9
-71.074127 42.391366 -0.3
-71.074221 42.391528 -0.3
-71.074015 42.391030 -2.1
-71.074065 42.391186 -1.2
-71.073190 42.390394 -6.4
-71.073268 42.390233 -6.7
-71.073488 42.390619 -7.0
-71.073388 42.390419 -6.4
-71.073407 42.390811 -6.7
-71.073599 42.390764 -6.4
-71.074043 42.391600 -1.5
-71.073952 42.391397 -4.9
-71.073829 42.391216 -5.5
-71.073724 42.391028 -6.4
-71.071815 42.391253 0.6
-71.071957 42.391428 0.3
-71.073779 42.390464 0.3
-71.073846 42.390286 0.9
-71.073721 42.390091 0.3
-71.074265 42.390891 0.6
-71.074168 42.391003 0.3
-71.074124 42.390691 0.3
-71.074052 42.390772 0.6
-71.074065 42.390864 0.3
-71.073927 42.390655 0.3
-71.073996 42.390505 0.6
-71.074429 42.391100 0.6
-71.074279 42.391178 0.3
-71.074404 42.391372 0.3
-71.073668 42.390583 -4.6
-71.073065 42.389625 -3.8
-71.072949 42.389475 -3.8
-71.072829 42.389330 -3.8
-71.074568 42.391316 0.6
-71.074671 42.391505 0.9
-71.074838 42.391733 0.9
-71.074599 42.391730 0.0
-71.070524 42.393619 -6.7
-71.070649 42.393439 -6.4
-71.070415 42.393280 -0.3
-71.070860 42.393525 -6.7
-71.070271 42.393625 -3.4
-71.070146 42.393522 -1.8
-71.070246 42.393444 -0.3
-71.070554 42.393336 -4.3
-71.070407 42.393497 -3.7
-71.070993 42.393439 -6.4
-71.071002 42.393339 -6.7
-71.070818 42.393394 -6.7
-71.070777 42.393291 -6.1
-71.070521 42.393814 -7.0
-71.070388 42.393719 -6.1
-71.070599 42.393964 -3.0
-71.070682 42.393850 -6.4
-71.070699 42.393725 -6.7
-71.069615 42.393866 -0.3
-71.069871 42.393791 -0.9
-71.069940 42.393705 0.0
-71.070065 42.393616 -0.6
-71.069990 42.394130 -4.6
-71.069799 42.394264 -3.7
-71.070129 42.393994 -4.9
-71.069660 42.394189 -4.9
-71.071343 42.392925 -7.9
-71.071143 42.392780 -4.6
-71.070252 42.393853 -5.8
-71.070285 42.394072 -4.6
-71.070385 42.393891 -5.8
-71.070135 42.394161 -4.6
-71.069979 42.394325 -3.4
-71.070418 42.394064 -3.4
-71.070285 42.394203 -2.4
-71.070249 42.394275 -2.1
-71.070168 42.394355 -2.1
-71.070899 42.393133 -5.8
-71.070740 42.393178 -4.6
-71.070638 42.393103 -0.6
-71.070699 42.393008 0.0
-71.070827 42.392858 -1.5
-71.071532 42.392183 0.0
-71.070935 42.392989 -5.5
-71.071038 42.392889 -4.3
-71.071557 42.392391 -3.7
-71.069646 42.393991 -4.3
-71.070965 42.393241 -6.7
-71.069546 42.394097 -4.6
-71.069413 42.394011 -2.4
-71.070138 42.393739 -4.9
-71.071454 42.393005 -7.3
-71.071099 42.393000 -6.7
-71.071196 42.393122 -7.6
-71.071204 42.393222 -7.0
-71.071388 42.392533 -4.9
-71.071124 42.392569 0.0
-71.071688 42.392528 -6.4
-71.071568 42.392594 -5.8
-71.071502 42.392714 -7.0
-71.071702 42.392766 -6.1
-71.069893 42.393989 -4.6
-71.070052 42.393844 -4.3
-71.070954 42.392766 -0.6
-71.071282 42.392683 -6.4
-71.069224 42.393941 0.3
-71.069463 42.393825 0.3
-71.071329 42.392375 0.3
-71.071815 42.392875 0.9
-71.072613 42.392347 0.3
-71.072729 42.392522 0.6
-71.073052 42.393014 0.9
-71.072935 42.392841 0.9
-71.072827 42.392672 0.6
-71.073215 42.394389 1.2
-71.073082 42.394225 1.2
-71.073135 42.393186 0.9
-71.073379 42.394536 0.9
-71.071893 42.392569 -5.8
-71.071763 42.392433 -6.1
-71.072121 42.392333 -5.5
-71.071788 42.392180 -5.8
-71.072024 42.392183 -5.8
-71.072338 42.392119 -5.5
-71.074235 42.392330 -1.5
-71.073952 42.391889 -1.8
-71.074018 42.391991 -1.8
-71.074096 42.392122 -1.5
-71.074165 42.392233 -1.2
-71.073588 42.393983 0.0
-71.073688 42.394178 0.0
-71.073824 42.394400 0.0
-71.074146 42.394486 -1.2
-71.074013 42.394247 -1.2
-71.073935 42.394028 -1.2
-71.073790 42.393789 -1.2
-71.073707 42.393578 -0.6
-71.072582 42.391833 -6.1
-71.072213 42.391816 -5.8
-71.072382 42.391816 -6.4
-71.073877 42.391800 -1.8
-71.072496 42.392175 0.0
-71.072482 42.391969 -4.3
-71.072215 42.391983 -5.8
-71.072357 42.392016 -6.1
-71.071954 42.392739 0.0
-71.072115 42.392583 -0.3
-71.072277 42.392425 0.0
-71.072440 42.392289 0.0
-71.071727 42.392000 0.0
-71.071932 42.391844 -0.6
-71.071982 42.392008 -6.1
-71.073129 42.391811 -3.4
-71.073299 42.391789 -3.4
-71.073479 42.392172 -4.0
-71.073688 42.392116 -2.1
-71.073571 42.391908 -2.4
-71.073315 42.391883 -3.0
-71.073402 42.391975 -3.7
-71.074282 42.391972 -1.2
-71.074168 42.391783 -1.2
-71.074054 42.392791 -3.0
-71.074418 42.392144 -0.6
-71.074360 42.391841 -0.9
-71.073349 42.392133 -3.0
-71.073974 42.393355 -2.1
-71.073363 42.392266 -3.4
-71.073090 42.392058 -2.7
-71.074357 42.393375 -2.1
-71.074446 42.393491 -2.1
-71.074482 42.393197 -3.4
-71.074340 42.393072 -2.7
-71.074165 42.393189 -2.7
-71.074224 42.393264 -2.4
-71.074457 42.393908 -0.3
-71.074357 42.393778 -0.9
-71.074235 42.393625 -1.2
-71.073263 42.392041 -3.4
-71.073463 42.392847 -2.4
-71.073290 42.392655 -2.7
-71.073185 42.392511 -2.7
-71.074085 42.393491 -2.4
-71.073685 42.392925 -2.4
-71.073215 42.392211 -2.7
-71.073307 42.392375 -2.7
-71.073471 42.392608 -2.4
-71.073590 42.392800 -2.7
-71.073015 42.391933 -2.1
-71.072913 42.391797 -2.7
-71.074399 42.394128 -0.9
-71.073746 42.392289 -2.7
-71.074282 42.393908 -1.2
-71.073707 42.392375 -4.3
-71.073043 42.391853 -2.7
-71.074182 42.393708 -2.4
-71.072868 42.391878 -2.1
-71.072607 42.392122 -1.2
-71.072724 42.391953 -2.7
-71.073679 42.392558 -3.4
-71.072832 42.392078 -2.4
-71.073838 42.392578 -3.7
-71.072949 42.392236 -2.7
-71.073546 42.392380 -3.7
-71.073063 42.392375 -2.7
-71.071865 42.392322 -5.6
-71.074585 42.394075 0.0
-71.074735 42.394222 -0.6
-71.074843 42.394380 -0.6
-71.074729 42.393855 -2.7
-71.074638 42.393769 -2.7
-71.074535 42.393628 -2.4
-71.075054 42.394391 -2.7
-71.074918 42.394211 -3.0
-71.074818 42.394025 -3.0
-71.075732 42.394311 -2.7
-71.075829 42.394475 -2.7
-71.074538 42.394353 -1.2
-71.075888 42.394080 -3.0
-71.075940 42.394239 -3.4
-71.074707 42.391894 0.0
-71.076029 42.394408 -3.0
-71.075093 42.392514 -2.1
-71.075152 42.392658 -1.8
-71.075263 42.392919 -1.8
-71.075402 42.393094 -2.1
-71.075524 42.393308 -2.1
-71.075557 42.393455 -2.7
-71.075649 42.393628 -2.7
-71.075724 42.393811 -2.7
-71.074671 42.393405 -3.4
-71.075068 42.393805 -3.4
-71.074863 42.393619 -3.4
-71.075321 42.394219 -2.7
-71.075190 42.394011 -3.0
-71.075465 42.394416 -2.7
-71.075621 42.394500 -2.1
-71.075332 42.393816 -2.7
-71.075446 42.394036 -2.4
-71.075543 42.394272 -2.4
-71.075410 42.393644 -3.0
-71.075365 42.393516 -3.4
-71.074824 42.392553 -2.7
-71.075146 42.393366 -2.7
-71.075265 42.393575 -2.4
-71.075110 42.393022 -2.7
-71.075002 42.392864 -2.7
-71.074915 42.392697 -3.0
-71.075293 42.393355 -3.0
-71.075204 42.393200 -2.7
-71.075593 42.393978 -2.7
-71.075515 42.393830 -3.4
-71.075663 42.394169 -2.7
-71.074410 42.394933 -1.2
-71.074232 42.394733 -1.5
-71.074029 42.394800 0.0
-71.074118 42.395016 0.0
-71.074213 42.395208 0.0
-71.073904 42.394614 0.0
-71.074324 42.395411 0.0
-71.074443 42.395616 0.0
-71.073635 42.394847 0.9
-71.073490 42.394669 0.9
-71.073768 42.394975 0.6
-71.073893 42.395128 0.6
-71.074399 42.395866 0.6
-71.074304 42.395739 0.6
-71.074218 42.395564 0.6
-71.074107 42.395416 0.6
-71.074002 42.395266 0.6
-71.074529 42.396033 0.6
-71.074582 42.396203 0.6
-71.074738 42.396503 0.6
-71.074638 42.396344 0.3
-71.074799 42.396650 0.6
-71.074974 42.397300 0.9
-71.074971 42.397139 0.6
-71.074952 42.396955 0.6
-71.074871 42.396791 0.6
-71.076663 42.395614 0.3
-71.075415 42.397264 0.3
-71.075965 42.395361 -2.7
-71.075868 42.395180 -2.7
-71.075777 42.395036 -2.7
-71.075679 42.394825 -2.7
-71.076493 42.396625 -0.9
-71.076618 42.396805 -0.6
-71.076390 42.396466 -2.1
-71.076788 42.396614 -0.3
-71.075660 42.395978 -1.8
-71.076057 42.397114 -1.5
-71.075540 42.394614 -2.7
-71.075999 42.396925 -1.8
-71.075704 42.396183 -1.5
-71.075788 42.396333 -1.5
-71.075871 42.396469 -1.2
-71.075938 42.396719 -1.5
-71.076157 42.395741 -2.4
-71.076088 42.395566 -2.4
-71.075718 42.394705 -1.8
-71.075885 42.394958 -2.1
-71.076002 42.395203 -2.1
-71.076449 42.396116 -1.2
-71.076340 42.396136 -2.4
-71.076071 42.395411 -1.8
-71.076221 42.395661 -1.8
-71.076327 42.395866 -1.5
-71.075727 42.396747 -1.2
-71.075868 42.397144 -1.2
-71.075807 42.396953 -1.2
-71.076757 42.396711 -0.3
-71.076735 42.396844 -0.3
-71.076732 42.397028 -0.3
-71.075602 42.395797 -1.8
-71.075510 42.395608 -1.5
-71.076704 42.397161 -0.3
-71.077079 42.396430 -3.7
-71.076110 42.394564 -3.0
-71.076260 42.394847 -1.8
-71.076204 42.394755 -1.5
-71.077229 42.397044 0.0
-71.076654 42.395947 -1.5
-71.074879 42.396228 0.0
-71.074724 42.396008 0.0
-71.076674 42.396208 -4.9
-71.076674 42.396086 -1.5
-71.074574 42.395130 -1.2
-71.074999 42.396428 0.0
-71.076571 42.395825 -1.5
-71.074724 42.394803 -1.5
-71.074618 42.394561 -1.5
-71.074582 42.395814 0.0
-71.074738 42.395350 -2.1
-71.074863 42.395544 -1.8
-71.075313 42.396911 0.0
-71.075146 42.396672 -0.3
-71.075999 42.394775 -2.7
-71.075913 42.394614 -2.7
-71.076127 42.397303 -1.5
-71.074971 42.395241 -1.2
-71.074829 42.395016 -1.8
-71.076527 42.395700 -2.1
-71.075202 42.395697 -2.4
-71.075104 42.395483 -2.1
-71.076429 42.395558 -2.4
-71.076357 42.395400 -2.4
-71.076235 42.395241 -2.7
-71.075446 42.396108 -2.1
-71.076168 42.395080 -2.7
-71.076077 42.394944 -2.7
-71.075596 42.396522 -1.8
-71.075485 42.396297 -1.8
-71.076299 42.394936 -2.4
-71.076349 42.395019 -1.8
-71.075327 42.396333 -1.5
-71.075357 42.397075 0.0
-71.076465 42.395175 -0.6
-71.076527 42.395339 -0.6
-71.075152 42.395964 -2.1
-71.075224 42.396158 -1.8
-71.076599 42.395466 -0.3
-71.076690 42.395703 0.0
-71.076682 42.396325 -4.0
-71.074963 42.395750 -1.5
-71.075404 42.396547 -0.6
-71.075499 42.396725 -0.9
-71.075557 42.396905 -0.9
-71.075613 42.397105 -0.3
-71.075160 42.394572 -2.7
-71.074918 42.394558 -1.2
-71.075027 42.394708 -1.8
-71.075149 42.394878 -1.8
-71.075249 42.394733 -3.0
-71.075279 42.395019 -1.8
-71.075379 42.395200 -0.9
-71.075479 42.395078 -2.7
-71.075354 42.394925 -2.7
-71.075713 42.395439 -2.1
-71.075540 42.395233 -2.4
-71.076046 42.396075 -2.7
-71.075965 42.395925 -3.4
-71.075843 42.395753 -3.0
-71.075743 42.395594 -3.0
-71.075410 42.395314 -0.9
-71.075460 42.395411 -1.2
-71.076140 42.396272 -2.7
-71.076190 42.396475 -2.4
-71.076190 42.396383 -2.1
-71.076346 42.396861 -2.1
-71.076260 42.396661 -2.7
-71.076385 42.397241 -2.4
-71.076365 42.397058 -2.4
-71.075304 42.395891 -2.0
-71.077854 42.396903 -1.8
-71.077282 42.397275 -0.3
-71.077338 42.397189 -0.3
-71.077738 42.397086 -1.8
-71.077527 42.397019 -1.2
-71.077290 42.396950 -1.2
-71.077510 42.396633 -1.8
-71.077277 42.396641 -1.8
-71.077393 42.396508 -1.8
-71.077713 42.396608 -1.5
-71.077782 42.396678 -1.8
-71.077379 42.396786 -1.5
-71.077554 42.396800 -1.8
-71.077904 42.396797 -2.1
-71.077940 42.396639 -0.9
-71.077318 42.396147 -0.6
-71.077524 42.396172 -0.6
-71.077763 42.396216 -0.6
-71.078002 42.396283 -0.6
-71.078135 42.396966 -1.8
-71.078057 42.397064 -1.8
-71.077977 42.397147 -1.2
-71.078190 42.397197 -1.5
-71.078338 42.396900 -1.2
-71.078021 42.396758 -1.8
-71.077963 42.396941 -1.8
-71.078402 42.397061 -1.8
-71.078121 42.396689 -0.6
-71.078515 42.396789 -0.3
-71.078307 42.396725 -0.6
-71.079432 42.396608 0.0
-71.079704 42.396666 0.0
-71.079324 42.396961 -0.3
-71.079529 42.397016 -0.3
-71.078229 42.396333 -0.6
-71.079740 42.397053 -0.6
-71.079902 42.397097 -1.8
-71.079785 42.397239 -2.7
-71.079599 42.397194 -1.5
-71.078854 42.396972 -0.6
-71.079482 42.397150 -0.9
-71.078607 42.396897 -0.6
-71.079288 42.397103 -0.3
-71.079049 42.397022 -0.9
-71.079229 42.397308 -2.1
-71.078943 42.397236 -1.5
-71.078665 42.397141 -1.5
-71.079177 42.396550 0.0
-71.078918 42.396480 0.0
-71.078693 42.396397 -0.3
-71.078460 42.396361 -0.3
-71.078710 42.396830 -0.3
-71.078699 42.396830 -0.3
-71.078949 42.396855 -0.3
-71.079115 42.396914 -0.3
-71.077535 42.397158 -1.2
-71.077513 42.397308 -0.6
-71.077835 42.397253 -1.5
-71.077618 42.397244 -1.8
-71.078229 42.397303 -1.5
-71.078402 42.397255 -1.8
-71.079985 42.396778 0.3
-71.081924 42.397228 0.3
-71.080263 42.396847 0.3
-71.081352 42.397069 0.3
-71.081782 42.397200 0.6
-71.081588 42.397155 0.3
-71.080507 42.396889 -0.3
-71.080068 42.397153 -2.4
-71.080888 42.396844 -1.5
-71.080882 42.396989 -4.0
-71.081127 42.397058 -0.3
-71.080877 42.397097 -3.0
-71.080335 42.397191 -3.0
-71.080329 42.397069 -3.4
-71.080824 42.397172 -2.1
-71.080396 42.397291 -1.8
-71.080560 42.397239 -2.1
-71.080760 42.397286 -0.9
-71.076674 42.397497 0.0
-71.076671 42.398655 -0.6
-71.076652 42.398825 -0.9
-71.076654 42.398980 -0.9
-71.076668 42.398155 -0.6
-71.076677 42.398314 -0.6
-71.076685 42.398489 -0.6
-71.076715 42.397644 -0.3
-71.076724 42.397786 -0.6
-71.076688 42.397911 -0.3
-71.076529 42.398414 -2.4
-71.076157 42.398130 -1.8
-71.076149 42.397928 -1.8
-71.076590 42.399833 -0.9
-71.076563 42.400014 -0.3
-71.076549 42.398780 -1.8
-71.076154 42.398355 -2.1
-71.076560 42.398633 -2.1
-71.076104 42.398758 -1.8
-71.076132 42.398569 -1.8
-71.076618 42.399161 -1.2
-71.076596 42.399328 -1.5
-71.076596 42.399491 -1.2
-71.076574 42.399658 -1.2
-71.075915 42.397328 -1.5
-71.076077 42.397728 -1.5
-71.076002 42.397533 -1.5
-71.076265 42.397875 -1.5
-71.076388 42.398839 -1.5
-71.076232 42.397694 -1.5
-71.076388 42.399047 -1.5
-71.076288 42.398075 -1.5
-71.076327 42.398278 -1.5
-71.076354 42.398469 -1.5
-71.076374 42.398639 -1.5
-71.075521 42.397897 0.0
-71.076024 42.399922 -0.6
-71.076077 42.399744 -0.9
-71.076124 42.399541 -0.9
-71.076163 42.399355 -0.6
-71.076115 42.399169 -0.9
-71.076152 42.398964 -1.5
-71.076185 42.397483 -1.5
-71.076218 42.399986 -1.5
-71.076310 42.399778 -1.8
-71.076374 42.399208 -1.5
-71.076382 42.399397 -1.8
-71.076393 42.399597 -1.8
-71.076499 42.397455 -2.1
-71.076538 42.398241 -2.4
-71.076552 42.398053 -2.1
-71.076499 42.397844 -2.4
-71.076485 42.397641 -2.4
-71.074890 42.400075 0.6
-71.074663 42.400039 0.3
-71.074893 42.399886 0.6
-71.074932 42.399705 0.6
-71.075032 42.398841 0.6
-71.075043 42.398678 0.6
-71.074879 42.398728 0.6
-71.074877 42.398950 0.6
-71.075032 42.399022 0.6
-71.074974 42.399380 0.6
-71.074993 42.399180 0.6
-71.074813 42.399186 0.6
-71.074724 42.399839 0.3
-71.074760 42.399622 0.3
-71.074938 42.399561 0.6
-71.074818 42.399414 0.6
-71.074888 42.398525 0.6
-71.075052 42.398494 0.9
-71.075040 42.398303 0.9
-71.074979 42.397461 0.9
-71.075021 42.397797 0.9
-71.075021 42.397614 0.9
-71.075054 42.398139 0.9
-71.075052 42.397955 0.9
-71.076699 42.397341 0.3
-71.075457 42.397478 0.3
-71.075468 42.397694 0.3
-71.075827 42.398883 0.9
-71.075585 42.398103 0.3
-71.075652 42.398316 0.3
-71.075699 42.398522 0.3
-71.075785 42.398705 0.6
-71.075857 42.399075 0.9
-71.075902 42.399286 0.6
-71.075963 42.399472 0.6
-71.075988 42.399661 0.3
-71.077318 42.398264 0.3
-71.078154 42.399511 0.3
-71.077613 42.399703 0.9
-71.078413 42.399566 0.3
-71.077946 42.399505 0.3
-71.077788 42.399503 0.6
-71.077304 42.399464 0.9
-71.077427 42.399475 0.6
-71.078177 42.399372 0.3
-71.077913 42.399216 0.3
-71.077715 42.398953 0.3
-71.078718 42.399680 0.3
-71.077446 42.398914 0.3
-71.078599 42.399769 0.3
-71.078354 42.399753 0.3
-71.078129 42.399750 0.6
-71.078190 42.399661 0.6
-71.077954 42.399664 0.9
-71.077785 42.399666 0.9
-71.078452 42.400078 1.2
-71.078227 42.400083 1.5
-71.078052 42.400080 1.5
-71.078457 42.399675 0.3
-71.077607 42.399486 0.6
-71.078118 42.399205 0.3
-71.078129 42.399114 0.3
-71.078043 42.399022 0.3
-71.077888 42.399061 0.3
-71.077618 42.399041 0.6
-71.077760 42.399125 0.3
-71.077574 42.399178 0.3
-71.077443 42.399114 0.3
-71.078368 42.398764 -1.5
-71.078424 42.398880 -1.5
-71.078577 42.398808 -1.2
-71.078915 42.398930 -0.6
-71.078668 42.398964 -1.2
-71.078265 42.399055 0.0
-71.078496 42.399097 -1.5
-71.078779 42.399044 -0.9
-71.079004 42.399044 -0.6
-71.078327 42.399269 0.0
-71.078352 42.399153 0.0
-71.078307 42.399541 0.0
-71.078379 42.399422 0.0
-71.078760 42.399144 -1.5
-71.078660 42.399169 -1.5
-71.078646 42.399305 -0.9
-71.079015 42.399214 -0.6
-71.078899 42.399194 -1.2
-71.078768 42.399566 -0.6
-71.078868 42.399311 -1.2
-71.078852 42.399800 0.0
-71.078518 42.399525 -0.3
-71.079079 42.399816 0.0
-71.079699 42.399747 -0.6
-71.079388 42.399433 -1.2
-71.079599 42.399455 -1.2
-71.079838 42.399486 -1.2
-71.079777 42.399622 -1.2
-71.079524 42.399600 -1.2
-71.079235 42.399589 -1.5
-71.079324 42.399828 0.0
-71.078927 42.399691 0.0
-71.079171 42.399714 0.0
-71.079399 42.399725 -0.3
-71.079621 42.399844 -0.6
-71.078540 42.397711 -0.6
-71.078524 42.397486 -1.5
-71.077435 42.397375 -0.3
-71.077354 42.397391 -0.3
-71.079554 42.399291 -0.3
-71.078632 42.397772 -0.9
-71.079968 42.399391 -0.6
-71.079943 42.399244 -0.6
-71.079865 42.399069 -0.6
-71.079943 42.399050 -0.3
-71.079627 42.399008 -0.6
-71.079690 42.399053 -0.3
-71.079821 42.399328 -0.3
-71.079654 42.399230 -0.6
-71.078493 42.397883 -0.3
-71.078932 42.397864 -0.6
-71.079421 42.399291 -0.6
-71.079310 42.399216 -0.6
-71.079193 42.399255 -0.6
-71.079810 42.397555 -1.2
-71.079240 42.397661 -0.9
-71.079571 42.397669 -0.9
-71.079674 42.397619 -0.9
-71.079429 42.397533 -1.2
-71.079182 42.397469 -2.4
-71.079174 42.398683 -0.3
-71.079479 42.397747 -0.6
-71.079724 42.397819 -0.6
-71.079985 42.398975 -0.3
-71.079107 42.398889 -0.3
-71.078049 42.399133 -0.3
-71.079379 42.398708 -0.3
-71.077482 42.397558 -0.3
-71.079946 42.397883 -0.3
-71.079263 42.399033 -0.3
-71.079346 42.398947 -0.3
-71.079460 42.397386 -3.0
-71.078727 42.397564 -2.7
-71.078968 42.397616 -1.5
-71.079743 42.397447 -1.8
-71.079490 42.399053 -0.3
-71.078632 42.397319 -1.8
-71.078957 42.397408 -2.1
-71.080043 42.397525 -0.9
-71.079963 42.397678 -0.6
-71.079360 42.397789 -0.6
-71.079024 42.397516 -2.1
-71.078157 42.398736 -0.9
-71.078115 42.398386 -1.5
-71.078282 42.398558 -1.5
-71.078015 42.398541 -0.9
-71.078385 42.397700 -0.9
-71.078274 42.397816 -0.6
-71.078235 42.398055 -0.9
-71.078379 42.398128 -0.6
-71.078274 42.398239 -0.9
-71.078024 42.398178 -1.8
-71.077932 42.398222 -1.2
-71.077946 42.398361 -1.2
-71.078088 42.397855 -1.2
-71.077996 42.397928 -1.5
-71.077899 42.397991 -1.5
-71.078115 42.398058 -1.8
-71.078196 42.398880 0.0
-71.077946 42.398855 0.0
-71.077904 42.398680 0.0
-71.077657 42.398650 0.0
-71.077429 42.398616 0.0
-71.077957 42.397561 -0.9
-71.077977 42.397686 -1.2
-71.077452 42.397878 -0.3
-71.077693 42.397953 -0.3
-71.077710 42.398141 -0.3
-71.078096 42.397616 -1.5
-71.077752 42.398319 -0.3
-71.077507 42.398280 0.0
-71.077546 42.398108 0.0
-71.078377 42.397541 -1.8
-71.077382 42.398425 0.0
-71.077599 42.398461 0.0
-71.077779 42.398505 0.0
-71.079779 42.398853 -0.3
-71.079863 42.398789 0.0
-71.080040 42.398183 -0.3
-71.079765 42.398103 -0.6
-71.079602 42.398755 0.0
-71.078035 42.397394 -0.9
-71.078313 42.397414 -1.2
-71.077768 42.397366 -1.2
-71.077593 42.397361 -1.2
-71.079213 42.397919 -0.3
-71.079124 42.397908 -0.3
-71.079485 42.398000 -0.3
-71.079260 42.398150 -0.3
-71.079643 42.398228 -0.3
-71.077663 42.397525 -1.2
-71.077829 42.397522 -1.5
-71.079974 42.398322 -0.6
-71.079927 42.398586 -0.3
-71.079643 42.398489 -0.3
-71.077579 42.397458 -1.2
-71.079352 42.398394 -0.3
-71.079082 42.398305 -0.3
-71.079049 42.398511 -0.3
-71.077499 42.397547 -0.3
-71.079254 42.398550 -0.3
-71.079463 42.398633 -0.3
-71.078238 42.397439 -0.9
-71.077896 42.397436 -1.2
-71.077799 42.398025 -0.6
-71.077824 42.397853 -1.2
-71.077735 42.397700 -1.2
-71.077565 42.397739 -0.3
-71.079915 42.399791 -0.3
-71.080040 42.399639 -1.2
-71.078552 42.398044 -0.3
-71.078704 42.398150 0.0
-71.078521 42.398250 0.0
-71.079143 42.399394 -1.5
-71.078696 42.398311 -0.3
-71.078810 42.398228 -0.3
-71.078999 42.399469 -0.9
-71.078949 42.398016 0.0
-71.078829 42.398794 -0.3
-71.078913 42.398636 -0.3
-71.078799 42.398630 -0.3
-71.078649 42.398636 -0.3
-71.078493 42.398650 -0.9
-71.078827 42.398475 -0.3
-71.078607 42.398433 -0.3
-71.078393 42.398411 -0.3
-71.079165 42.399516 -1.2
-71.080715 42.398116 0.0
-71.080424 42.398050 0.0
-71.080160 42.397941 0.0
-71.080446 42.399105 -0.6
-71.080218 42.399019 -0.3
-71.080088 42.398814 -0.3
-71.080790 42.398850 0.0
-71.080515 42.398755 -0.3
-71.080235 42.398686 -0.6
-71.080713 42.398489 0.0
-71.080343 42.398400 0.0
-71.080313 42.398241 0.0
-71.080590 42.398322 0.0
-71.080857 42.398416 0.0
-71.080954 42.398197 0.0
-71.080096 42.399116 -0.6
-71.080671 42.399164 -0.6
-71.080371 42.399183 -0.6
-71.080299 42.399297 -0.3
-71.080663 42.399341 -0.6
-71.080588 42.399436 -0.6
-71.080307 42.399400 -0.6
-71.080063 42.399364 -0.3
-71.080493 42.399672 -1.2
-71.080265 42.399653 -1.2
-71.080077 42.399522 -1.2
-71.080215 42.399441 -0.9
-71.080346 42.399541 -0.9
-71.080471 42.399497 -0.9
-71.080735 42.399555 -0.9
-71.081199 42.397844 0.0
-71.081404 42.397903 0.0
-71.081635 42.397955 0.0
-71.081663 42.399119 0.0
-71.081960 42.398758 0.0
-71.081718 42.398700 0.0
-71.081413 42.398572 0.0
-71.081146 42.398491 0.0
-71.081090 42.398575 0.0
-71.082007 42.398528 0.0
-71.081179 42.398041 0.0
-71.080185 42.399803 -0.6
-71.080427 42.399850 -0.6
-71.080679 42.399875 -0.3
-71.080743 42.399675 -1.2
-71.082057 42.400058 -0.3
-71.081824 42.400036 0.0
-71.082015 42.399861 -0.6
-71.081893 42.399916 -1.2
-71.082288 42.399866 -0.9
-71.082335 42.399978 0.0
-71.082140 42.399808 -1.5
-71.082140 42.399944 -0.6
-71.080932 42.397333 0.0
-71.080182 42.397375 -1.8
-71.080765 42.397755 0.0
-71.080571 42.397711 -0.3
-71.080268 42.397636 -0.3
-71.082735 42.399872 -1.8
-71.082399 42.399853 -1.2
-71.082632 42.399872 -1.5
-71.082535 42.399855 -1.2
-71.082393 42.399733 -1.2
-71.081774 42.399880 -0.6
-71.081885 42.399786 -1.8
-71.082149 42.399686 -2.1
-71.080913 42.397958 0.0
-71.080974 42.397794 0.0
-71.082315 42.399636 -1.8
-71.082479 42.399672 -2.1
-71.080657 42.397891 0.0
-71.081852 42.399647 -1.2
-71.081843 42.399486 -1.5
-71.082096 42.399547 -1.5
-71.082215 42.399608 -2.4
-71.082582 42.399658 -2.1
-71.082688 42.399703 -2.4
-71.080435 42.397811 0.0
-71.081154 42.399944 0.0
-71.081352 42.399969 0.0
-71.081596 42.400008 0.0
-71.080199 42.397755 -0.3
-71.082246 42.399305 0.0
-71.081954 42.399222 0.0
-71.082663 42.398494 0.0
-71.081363 42.399025 0.0
-71.081160 42.399314 -0.9
-71.080915 42.399239 -0.9
-71.081079 42.398947 0.0
-71.081627 42.399422 -1.2
-71.081507 42.399394 -0.6
-71.081396 42.399353 -0.9
-71.081340 42.399436 -0.9
-71.081727 42.399505 -1.2
-71.080835 42.399475 -0.9
-71.081027 42.399397 -0.6
-71.080971 42.399611 -1.2
-71.081599 42.399594 -1.2
-71.081313 42.399539 -1.2
-71.081107 42.399519 -0.9
-71.081674 42.399786 -2.1
-71.080843 42.399489 -0.9
-71.081390 42.399728 -1.8
-71.080932 42.399691 -1.5
-71.081196 42.399722 -1.5
-71.081010 42.399875 -1.2
-71.080863 42.399919 -0.3
-71.081532 42.399864 -0.9
-71.081268 42.399869 -0.9
-71.081471 42.398664 0.3
-71.082540 42.399130 0.3
-71.082724 42.399178 0.3
-71.082263 42.398830 0.3
-71.082763 42.398739 0.9
-71.082527 42.398908 0.6
-71.081757 42.398450 0.3
-71.082521 42.398691 0.6
-71.082257 42.398622 0.3
-71.081677 42.398175 0.3
-71.081424 42.398108 0.3
-71.082010 42.398050 0.3
-71.081829 42.398008 0.3
-71.081165 42.397386 0.3
-71.081527 42.398358 0.3
-71.081257 42.398289 0.3
-71.082415 42.398389 0.3
-71.082163 42.398333 0.3
-71.081888 42.398241 0.3
-71.081654 42.397511 0.3
-71.081343 42.397430 0.3
-71.082954 42.398569 0.3
-71.083454 42.398739 0.6
-71.083213 42.398650 0.6
-71.083660 42.399428 0.3
-71.083390 42.399183 0.3
-71.083115 42.399069 0.6
-71.082840 42.398986 0.9
-71.083249 42.398905 0.3
-71.083029 42.398833 0.6
-71.083438 42.399019 0.3
-71.083177 42.398980 0.3
-71.082949 42.398908 0.6
-71.082952 42.399261 0.3
-71.083818 42.399461 0.6
-71.084866 42.399425 0.3
-71.083715 42.399111 0.3
-71.084046 42.399191 0.6
-71.083429 42.400003 0.3
-71.084577 42.399336 0.3
-71.084277 42.399253 0.3
-71.083674 42.400047 0.6
-71.082849 42.399489 -1.2
-71.083404 42.399389 -0.6
-71.083171 42.399333 0.0
-71.082868 42.399900 -1.8
-71.083502 42.399814 -4.3
-71.083171 42.399766 -3.4
-71.083004 42.399925 -2.7
-71.083140 42.399939 -1.2
-71.083260 42.399980 -3.4
-71.083727 42.399822 -2.7
-71.083024 42.399791 -2.4
-71.082896 42.399803 -1.5
-71.082882 42.399708 -2.7
-71.084721 42.399628 -0.6
-71.084966 42.399686 -0.6
-71.085122 42.399491 0.0
-71.084830 42.399941 -2.1
-71.083952 42.399475 -0.9
-71.084215 42.399547 -0.6
-71.084479 42.399583 -0.6
-71.085100 42.400019 -1.8
-71.085403 42.400086 -2.4
-71.085458 42.399797 -0.6
-71.085111 42.399800 -0.6
-71.085533 42.399905 -0.9
-71.085328 42.399847 -0.6
-71.085064 42.399922 -0.6
-71.085403 42.399980 -2.4
-71.085244 42.399728 -0.6
-71.085400 42.399566 -0.3
-71.084532 42.400030 -2.7
-71.084722 42.399997 -2.4
-71.084454 42.399966 -2.7
-71.084285 42.400000 -2.7
-71.083796 42.400080 -2.7
-71.084115 42.399933 -2.1
-71.085841 42.399783 -0.6
-71.085680 42.399639 -0.6
-71.085880 42.399897 -1.8
-71.085736 42.399936 -1.5
-71.085680 42.399833 -0.9
-71.085608 42.399811 -0.6
-71.086189 42.400072 -1.2
-71.085947 42.400016 -1.8
-71.085953 42.399708 -0.6
-71.087405 42.399683 -2.1
-71.087708 42.399644 -1.8
-71.087825 42.399739 -1.8
-71.087203 42.399880 -1.8
-71.087558 42.399816 -0.9
-71.087828 42.399855 -1.8
-71.086311 42.399675 0.0
-71.086100 42.399714 -0.3
-71.086211 42.399786 -1.2
-71.086903 42.399755 -1.5
-71.087178 42.399666 -1.5
-71.087055 42.399716 -1.8
-71.086161 42.399972 -2.1
-71.086766 42.399955 -2.1
-71.086611 42.400039 -0.9
-71.086336 42.400011 -1.8
-71.086722 42.399753 -1.8
-71.086503 42.399875 -2.1
-71.086397 42.399805 -1.8
-71.086075 42.399880 -1.5
-71.087783 42.399991 -0.3
-71.087558 42.400028 -0.3
-71.087578 42.399914 -0.6
-71.086883 42.399941 -1.8
-71.087341 42.399994 -0.3
-71.087150 42.400064 -0.6
-71.088166 42.399914 -0.6
-71.088330 42.399878 -0.6
-71.088030 42.399755 -2.1
-71.087978 42.399950 -0.6
-71.088253 42.399666 -2.1
-71.088189 42.399455 -0.9
-71.088364 42.399522 -1.8
-71.088036 42.399564 -1.8
-71.087236 42.399564 1.8
-71.087966 42.399458 1.2
-71.087716 42.399516 1.5
-71.087472 42.399533 1.8
-71.088241 42.399366 1.2
-71.086583 42.399655 0.6
-71.087005 42.399589 1.5
-71.086789 42.399622 1.2
-71.088211 42.400016 0.3
-71.090572 42.399544 0.9
-71.090361 42.399628 0.9
-71.090147 42.399733 1.2
-71.089880 42.399855 1.2
-71.089636 42.399978 0.9
-71.089425 42.400036 1.2
-71.090889 42.399311 0.3
-71.091061 42.399286 0.3
-71.088522 42.400055 0.6
-71.088755 42.399961 0.6
-71.088964 42.399858 0.3
-71.090455 42.399430 0.3
-71.090664 42.399369 0.3
-71.088458 42.399280 1.5
-71.089041 42.399128 1.2
-71.088750 42.399200 1.5
-71.089544 42.398958 0.3
-71.089291 42.399039 0.6
-71.090308 42.398753 0.3
-71.090578 42.398666 0.3
-71.091100 42.398553 0.3
-71.090836 42.398597 0.3
-71.090847 42.399403 0.6
-71.088414 42.399416 -0.6
-71.088708 42.399366 -0.9
-71.088669 42.399530 -1.5
-71.088486 42.399569 -1.8
-71.088905 42.399316 -0.6
-71.088908 42.399414 -1.8
-71.088478 42.399919 0.0
-71.088539 42.399825 -0.6
-71.088950 42.399533 -1.8
-71.089019 42.399705 -0.3
-71.088750 42.399786 0.0
-71.089789 42.398894 0.0
-71.089366 42.399236 -1.2
-71.089605 42.399144 -0.6
-71.089828 42.399066 -0.3
-71.089330 42.399583 -0.6
-71.089153 42.399483 -2.1
-71.089361 42.399408 -1.8
-71.089778 42.399330 -1.8
-71.089950 42.399119 -0.9
-71.089814 42.399216 -1.2
-71.089525 42.399255 -1.2
-71.089147 42.399328 -1.5
-71.090597 42.399130 -2.1
-71.090428 42.399111 -1.2
-71.090908 42.398855 -0.9
-71.091011 42.398939 -1.5
-71.090811 42.399025 -2.4
-71.089997 42.399516 0.0
-71.089219 42.399736 0.0
-71.090825 42.399144 -2.4
-71.090203 42.399483 0.0
-71.090178 42.399328 -2.1
-71.090380 42.399228 -2.1
-71.090278 42.399053 -0.6
-71.090155 42.399130 -0.9
-71.089578 42.399486 -1.2
-71.089697 42.399516 -1.2
-71.089786 42.399591 0.0
-71.089894 42.399400 -1.5
-71.089461 42.399633 -0.6
-71.089589 42.399636 0.0
-71.090461 42.398794 0.0
-71.090239 42.398886 -0.3
-71.090058 42.398978 -0.3
-71.090600 42.398944 -0.3
-71.090658 42.398733 0.0
-71.090089 42.398803 0.0
-71.091189 42.399083 -2.4
-71.092175 42.399022 -2.1
-71.092111 42.399191 -0.3
-71.091853 42.399128 -2.4
-71.091739 42.399080 -0.3
-71.091328 42.399153 -0.6
-71.091272 42.398953 -1.8
-71.091164 42.398972 -2.1
-71.091578 42.399016 -1.8
-71.091411 42.399011 -1.8
-71.091480 42.398778 -0.9
-71.091211 42.398783 -0.9
-71.091269 42.398853 -1.2
-71.092728 42.399241 -1.5
-71.092469 42.399153 -2.1
-71.092339 42.399236 0.0
-71.092272 42.398808 0.0
-71.092066 42.398772 -0.6
-71.091994 42.398891 -1.8
-71.091850 42.398911 -2.1
-71.091605 42.398741 -0.9
-71.091503 42.398950 -2.1
-71.091947 42.399036 -1.8
-71.093461 42.399691 -0.3
-71.093228 42.399597 -0.3
-71.093014 42.399494 0.0
-71.093886 42.399869 -0.9
-71.093714 42.399786 -0.6
-71.093772 42.399555 -1.8
-71.093861 42.399741 -1.2
-71.093119 42.399072 -1.5
-71.092853 42.398939 -1.5
-71.092653 42.398833 -0.6
-71.093375 42.399169 -0.9
-71.092775 42.399411 0.0
-71.093244 42.399294 -1.5
-71.093600 42.399275 0.0
-71.092997 42.399378 -1.5
-71.093316 42.399489 -1.2
-71.093578 42.399597 -1.2
-71.093503 42.399422 -1.5
-71.092475 42.398797 -0.9
-71.092411 42.398703 0.0
-71.092453 42.398889 -0.3
-71.092736 42.399036 -0.6
-71.093011 42.399169 -0.9
-71.091369 42.398522 0.9
-71.093866 42.399400 0.3
-71.091639 42.398514 0.9
-71.092186 42.398603 0.3
-71.091975 42.398547 0.6
-71.091891 42.399283 0.9
-71.091508 42.399141 0.3
-71.092600 42.399328 0.3
-71.092425 42.399364 0.3
-71.092139 42.399289 0.6
-71.092666 42.399486 0.3
-71.093194 42.399711 0.6
-71.092900 42.399583 0.6
-71.093747 42.399944 0.3
-71.093503 42.399839 0.6
-71.094019 42.400053 0.6
-71.094058 42.399483 0.9
-71.094422 42.399678 0.3
-71.095278 42.400055 0.3
-71.093991 42.399661 -1.5
-71.094136 42.399850 -1.2
-71.094119 42.399947 -0.9
-71.094350 42.400041 -0.9
-71.094219 42.399775 -1.8
-71.094119 42.399716 -1.2
-71.094697 42.399775 0.0
-71.094436 42.399872 -1.8
-71.094605 42.399986 -1.5
-71.094389 42.399961 -1.5
-71.094961 42.399916 0.0
-71.073888 42.401503 0.9
-71.074113 42.401355 0.9
-71.074368 42.401197 0.6
-71.073449 42.401833 0.9
-71.073668 42.401686 0.9
-71.073113 42.402189 0.6
-71.073246 42.402014 0.6
-71.073802 42.401741 0.3
-71.072610 42.402780 0.9
-71.074393 42.400708 0.6
-71.074235 42.401130 0.6
-71.074332 42.400908 0.6
-71.074188 42.402250 -1.8
-71.074418 42.402116 -1.5
-71.074296 42.401819 -1.8
-71.074440 42.401783 -1.5
-71.073860 42.402075 -1.5
-71.073988 42.401961 -1.2
-71.074093 42.401941 -2.1
-71.074132 42.401819 -1.2
-71.074268 42.401936 -1.2
-71.074057 42.402072 -1.2
-71.073868 42.402225 -1.8
-71.074013 42.402350 -1.8
-71.073415 42.402816 -1.5
-71.073529 42.402750 -2.1
-71.073652 42.402611 -2.1
-71.073807 42.402475 -2.1
-71.073738 42.402208 -2.1
-71.073640 42.402266 -3.0
-71.073707 42.402400 -2.1
