-70.102591 43.031916 -150.3
-70.104221 43.031980 -155.1
-70.105777 43.032052 -154.5
-70.107610 43.032144 -154.5
-70.110260 43.032191 -154.8
-70.112532 43.032280 -152.7
-70.115985 43.032336 -157.9
-70.114038 43.032344 -155.8
-70.117691 43.017194 -145.4
-70.124493 43.017211 -150.0
-70.126338 43.017227 -150.9
-70.119410 43.017241 -147.8
-70.121043 43.017277 -147.5
-70.128699 43.017411 -150.3
-70.131146 43.017447 -150.6
-70.120696 43.022725 -152.4
-70.126746 43.022769 -136.9
-70.131013 43.022775 -153.0
-70.129132 43.022777 -145.4
-70.124913 43.022816 -135.9
-70.118449 43.022883 -150.3
-70.122954 43.022936 -144.2
-70.116479 43.022938 -145.7
-70.129718 43.032190 -171.9
-70.131263 43.032307 -169.5
-70.127446 43.032337 -175.6
-70.118332 43.032352 -161.5
-70.125288 43.032393 -174.0
-70.120479 43.032397 -169.2
-70.122888 43.032415 -170.4
-70.133229 43.017425 -153.0
-70.147541 43.017516 -161.8
-70.143288 43.017538 -155.8
-70.135652 43.017541 -154.8
-70.137771 43.017577 -154.2
-70.145321 43.017583 -157.6
-70.139702 43.017605 -154.5
-70.141043 43.017650 -154.2
-70.142516 43.032154 -177.4
-70.135341 43.032176 -181.1
-70.140346 43.032182 -179.8
-70.136921 43.032257 -182.6
-70.147146 43.032287 -177.4
-70.133260 43.032307 -171.0
-70.144749 43.032307 -178.0
-70.149141 43.032360 -175.9
-70.149696 43.017486 -171.3
-70.162416 43.017541 -183.5
-70.151843 43.017558 -178.6
-70.165989 43.017575 -181.4
-70.158402 43.017655 -177.1
-70.156421 43.017666 -175.6
-70.160471 43.017755 -179.2
-70.163832 43.017772 -181.1
-70.154063 43.017788 -183.5
-70.163153 43.032312 -181.1
-70.156280 43.032365 -174.0
-70.158425 43.032390 -177.4
-70.150621 43.032415 -174.7
-70.152641 43.032424 -175.6
-70.154007 43.032440 -177.1
-70.160783 43.032443 -186.2
-70.165600 43.032504 -182.0
-70.009547 43.034275 -129.8
-70.014133 43.034333 -121.0
-70.007847 43.034338 -133.8
-70.006000 43.034347 -139.6
-70.011447 43.034386 -126.2
-70.001286 43.034463 -150.0
-70.004000 43.034475 -144.5
-70.009708 43.035786 -131.1
-70.010069 43.037130 -135.6
-70.009919 43.038941 -134.1
-70.014416 43.039127 -124.7
-70.001269 43.039150 -151.5
-70.012205 43.039238 -126.2
-70.003569 43.039252 -145.4
-70.005730 43.039272 -141.4
-70.008155 43.039327 -138.1
-70.009755 43.040002 -134.1
-70.009677 43.041602 -134.7
-70.009814 43.043158 -134.7
-70.009925 43.044566 -136.6
-70.010286 43.045966 -137.2
-70.010472 43.047247 -137.5
-70.010383 43.048508 -139.0
-70.026544 43.033830 -94.8
-70.030366 43.033833 -83.2
-70.032672 43.033841 -69.8
-70.028080 43.033961 -90.5
-70.024580 43.034013 -100.0
-70.021905 43.034041 -104.5
-70.019719 43.034122 -110.3
-70.016269 43.034305 -115.5
-70.017933 43.034436 -110.9
-70.024641 43.036822 -100.9
-70.026727 43.036822 -95.7
-70.030802 43.036852 -79.2
-70.019030 43.036886 -112.5
-70.028516 43.036888 -89.6
-70.022316 43.036913 -106.7
-70.020466 43.036958 -109.7
-70.016455 43.039166 -119.8
-70.018552 43.039194 -115.5
-70.020641 43.039205 -110.6
-70.021927 43.039325 -107.9
-70.024052 43.039419 -102.4
-70.026127 43.039438 -96.3
-70.028452 43.039483 -87.8
-70.031125 43.039530 -81.1
-70.018027 43.041700 -118.6
-70.019302 43.041875 -115.8
-70.021375 43.041911 -110.0
-70.025550 43.041961 -98.8
-70.027525 43.042052 -91.7
-70.023364 43.042097 -104.5
-70.031750 43.042247 -72.5
-70.029875 43.042263 -84.1
-70.017161 43.047563 -121.9
-70.018422 43.047747 -119.2
-70.020372 43.047766 -110.9
-70.022533 43.047822 -106.1
-70.024947 43.047880 -98.1
-70.030597 43.047908 -82.0
-70.026408 43.047972 -95.7
-70.028397 43.048075 -88.1
-70.037502 43.033741 -62.2
-70.038725 43.033836 -60.4
-70.040983 43.033872 -56.7
-70.035194 43.033897 -64.0
-70.043516 43.033927 -55.2
-70.045800 43.033991 -54.3
-70.047998 43.034038 -53.3
-70.033358 43.036677 -66.8
-70.035616 43.036797 -64.3
-70.044752 43.036855 -55.2
-70.038036 43.036900 -61.0
-70.039908 43.036938 -58.2
-70.046787 43.036975 -52.7
-70.042180 43.037022 -56.7
-70.047798 43.037205 -54.6
-70.037511 43.039652 -62.2
-70.033205 43.039669 -68.3
-70.035177 43.039708 -64.6
-70.041580 43.039744 -58.5
-70.043928 43.039802 -57.0
-70.039622 43.039836 -60.0
-70.045987 43.039966 -55.2
-70.048084 43.039986 -53.6
-70.033952 43.042275 -64.3
-70.036186 43.042286 -62.8
-70.038422 43.042305 -60.4
-70.043765 43.042313 -57.3
-70.045737 43.042325 -54.9
-70.041806 43.042369 -58.2
-70.047920 43.042444 -54.3
-70.044812 43.047672 -57.0
-70.049392 43.047719 -54.3
-70.037684 43.047780 -60.7
-70.047070 43.047811 -55.5
-70.033089 43.047827 -74.1
-70.042376 43.047875 -57.9
-70.040031 43.047902 -58.5
-70.035222 43.047947 -64.3
-70.064823 43.033505 -81.1
-70.060278 43.033533 -52.1
-70.062626 43.033572 -53.3
-70.055062 43.033625 -49.7
-70.056548 43.033700 -45.4
-70.058720 43.033866 -52.1
-70.052717 43.033919 -50.6
-70.050370 43.033947 -51.8
-70.065770 43.036647 -89.3
-70.063437 43.036747 -58.5
-70.058506 43.036913 -51.2
-70.061501 43.037033 -53.3
-70.050156 43.037141 -52.4
-70.054901 43.037188 -48.8
-70.056459 43.037216 -51.8
-70.051942 43.037225 -51.5
-70.064573 43.039452 -61.9
-70.061865 43.039508 -53.6
-70.060003 43.039691 -52.4
-70.057870 43.039886 -51.2
-70.056548 43.039922 -52.1
-70.052340 43.039997 -51.8
-70.054412 43.040061 -51.2
-70.050117 43.040105 -52.7
-70.060615 43.041994 -51.5
-70.064148 43.042013 -56.1
-70.062476 43.042050 -52.4
-70.057681 43.042113 -52.7
-70.055434 43.042288 -50.9
-70.053251 43.042361 -50.9
-70.051192 43.042436 -52.7
-70.054023 43.047691 -52.4
-70.056345 43.047691 -51.2
-70.058417 43.047711 -47.5
-70.051576 43.047738 -53.6
-70.060665 43.047766 -52.4
-70.063398 43.047822 -52.4
-70.065009 43.048033 -56.4
-70.073251 43.033433 -95.7
-70.067234 43.033525 -105.8
-70.077795 43.033541 -103.9
-70.079920 43.033541 -110.3
-70.081298 43.033580 -111.9
-70.079584 43.036763 -107.9
-70.081348 43.036783 -105.5
-70.070951 43.036913 -101.2
-70.067545 43.036922 -93.0
-70.068848 43.036941 -90.5
-70.077620 43.036958 -114.6
-70.075267 43.037013 -110.6
-70.073165 43.037061 -115.2
-70.075053 43.038966 -100.0
-70.077170 43.039019 -96.6
-70.070776 43.039141 -84.4
-70.068623 43.039150 -81.4
-70.079334 43.039158 -92.4
-70.072828 43.039169 -94.2
-70.066634 43.039197 -83.5
-70.081473 43.039269 -87.2
-70.078484 43.041791 -96.6
-70.079809 43.041938 -97.8
-70.074428 43.041986 -91.1
-70.072276 43.042013 -88.4
-70.076620 43.042022 -93.6
-70.081287 43.042038 -97.5
-70.068109 43.042041 -87.8
-70.066295 43.042097 -89.0
-70.069412 43.042122 -88.1
-70.081515 43.048171 -127.7
-70.079423 43.048254 -126.2
-70.077084 43.048299 -119.5
-70.066709 43.048311 -69.5
-70.068848 43.048346 -95.1
-70.075456 43.048401 -117.3
-70.070801 43.048474 -98.8
-70.073078 43.048537 -110.6
-70.083776 43.033569 -126.5
-70.084901 43.033697 -127.7
-70.087292 43.033911 -126.2
-70.097465 43.033952 -146.0
-70.089181 43.033955 -126.8
-70.092884 43.033955 -137.2
-70.095187 43.033972 -145.1
-70.090581 43.034094 -128.0
-70.083176 43.036894 -123.1
-70.084626 43.036930 -133.8
-70.093626 43.038391 -139.0
-70.083890 43.039286 -97.5
-70.085842 43.039294 -110.6
-70.087242 43.039561 -117.3
-70.088756 43.039561 -120.1
-70.095828 43.039616 -136.2
-70.089945 43.039663 -118.6
-70.093887 43.039772 -130.8
-70.091259 43.039930 -124.7
-70.098143 43.039946 -132.3
-70.093137 43.041807 -112.2
-70.082826 43.041902 -100.9
-70.087906 43.041936 -105.8
-70.095266 43.041954 -115.5
-70.089295 43.042001 -106.7
-70.084828 43.042030 -103.0
-70.086117 43.042058 -103.6
-70.090987 43.042065 -107.9
-70.087559 43.047882 -126.2
-70.094518 43.047901 -121.3
-70.092241 43.048037 -126.5
-70.089737 43.048140 -130.5
-70.083190 43.048243 -128.6
-70.111474 43.033997 -158.2
-70.102446 43.034000 -150.6
-70.104593 43.034019 -153.9
-70.109277 43.034027 -156.7
-70.106804 43.034091 -158.2
-70.113985 43.034236 -156.7
-70.116071 43.034251 -156.7
-70.099520 43.034830 -149.4
-70.100124 43.036433 -151.2
-70.100577 43.038033 -144.2
-70.100302 43.039412 -127.1
-70.103279 43.039524 -116.4
-70.101421 43.039568 -123.7
-70.104560 43.039576 -118.3
-70.106718 43.039612 -123.7
-70.109118 43.039621 -121.9
-70.111516 43.039696 -125.3
-70.113113 43.039749 -135.3
-70.114718 43.039776 -135.9
-70.101621 43.040912 -121.6
-70.101885 43.041907 -123.7
-70.102416 43.043637 -123.4
-70.103068 43.044962 -124.4
-70.103735 43.046462 -132.3
-70.104302 43.047882 -133.8
-70.104691 43.049529 -134.7
-70.117313 43.034390 -156.4
-70.119474 43.034415 -157.3
-70.121546 43.034424 -156.7
-70.123554 43.034590 -159.4
-70.129946 43.034862 -165.5
-70.132646 43.035221 -164.3
-70.124402 43.039412 -138.7
-70.121627 43.039487 -140.5
-70.119141 43.039662 -141.4
-70.116916 43.039674 -139.6
-70.126485 43.039687 -139.6
-70.130718 43.039732 -141.4
-70.128432 43.039743 -140.5
-70.134207 43.035257 -160.9
-70.135474 43.035346 -160.0
-70.136716 43.035512 -162.2
-70.138082 43.035640 -160.0
-70.139363 43.035843 -160.9
-70.147941 43.035854 -164.6
-70.145946 43.035921 -158.2
-70.141118 43.035924 -158.2
-70.144443 43.035968 -158.8
-70.142449 43.036071 -157.3
-70.147982 43.039232 -154.8
-70.145838 43.039335 -153.0
-70.143418 43.039429 -154.8
-70.141085 43.039440 -155.1
-70.138777 43.039479 -155.8
-70.135379 43.039546 -151.5
-70.136760 43.039626 -153.0
-70.132996 43.039637 -146.6
-70.164194 43.035612 -172.5
-70.161022 43.035632 -171.0
-70.158189 43.035643 -163.7
-70.156633 43.035701 -166.4
-70.162478 43.035704 -171.0
-70.154878 43.035785 -163.7
-70.159205 43.035826 -170.1
-70.152394 43.035907 -165.2
-70.150110 43.035918 -162.8
-70.165519 43.039146 -170.7
-70.163272 43.039221 -167.3
-70.150003 43.039232 -153.9
-70.153892 43.039274 -160.0
-70.151647 43.039276 -155.4
-70.156211 43.039282 -163.7
-70.158180 43.039290 -166.4
-70.160628 43.039362 -167.3
-70.010483 43.050219 -138.7
-70.010569 43.051730 -137.2
-70.010605 43.053802 -137.5
-70.010677 43.055533 -137.8
-70.010864 43.056600 -137.2
-70.010725 43.057963 -136.2
-70.015689 43.059263 -121.9
-70.013400 43.059288 -127.7
-70.006461 43.059313 -142.3
-70.008900 43.059325 -137.2
-70.010672 43.060605 -133.8
-70.011008 43.062694 -135.9
-70.011397 43.063605 -136.2
-70.011383 43.065163 -135.9
-70.011480 43.066200 -135.6
-70.022755 43.052547 -109.7
-70.027205 43.052547 -96.3
-70.024744 43.052611 -103.6
-70.016319 43.052636 -125.0
-70.029255 43.052658 -91.1
-70.020519 43.052675 -113.4
-70.018455 43.052738 -121.0
-70.031519 43.052788 -82.6
-70.026014 43.058366 -102.1
-70.030453 43.058394 -89.0
-70.028077 43.058402 -96.0
-70.023277 43.058613 -107.3
-70.021164 43.058730 -110.9
-70.018314 43.059088 -118.6
-70.031451 43.064737 -88.7
-70.017672 43.064915 -120.7
-70.019833 43.064935 -114.6
-70.026212 43.064957 -101.2
-70.028398 43.064957 -96.6
-70.021647 43.065001 -110.0
-70.024112 43.065010 -106.1
-70.037831 43.052780 -64.6
-70.040053 43.052808 -59.7
-70.033748 43.052816 -77.7
-70.035984 43.052836 -69.8
-70.044659 43.052911 -56.1
-70.048767 43.052938 -55.2
-70.042101 43.052947 -57.6
-70.046670 43.053013 -56.1
-70.032873 43.058183 -83.2
-70.034681 43.058194 -74.1
-70.045681 43.058193 -57.0
-70.036356 43.058265 -72.5
-70.043434 43.058296 -59.4
-70.038715 43.058304 -67.4
-70.040862 43.058324 -62.5
-70.047467 43.058351 -55.8
-70.039873 43.064510 -69.8
-70.035490 43.064526 -80.2
-70.037726 43.064526 -74.4
-70.041970 43.064565 -66.1
-70.033442 43.064590 -84.1
-70.044467 43.064610 -61.9
-70.046690 43.064749 -58.5
-70.048851 43.064832 -57.3
-70.062201 43.052543 -52.1
-70.064348 43.052599 -52.7
-70.060065 43.052618 -51.5
-70.057717 43.052746 -52.1
-70.051040 43.052791 -53.9
-70.053262 43.052818 -53.0
-70.055170 43.052885 -52.7
-70.049715 43.058260 -54.6
-70.052048 43.058335 -52.7
-70.054659 43.058490 -52.1
-70.056531 43.058499 -51.5
-70.062162 43.058674 -50.9
-70.058028 43.058685 -50.3
-70.064745 43.058701 -51.2
-70.060315 43.058821 -51.5
-70.063834 43.064346 -50.6
-70.062398 43.064421 -50.3
-70.059278 43.064465 -52.1
-70.060726 43.064501 -51.5
-70.054995 43.064640 -53.0
-70.057278 43.064668 -51.5
-70.066131 43.064807 -53.3
-70.052809 43.064832 -53.6
-70.051123 43.064899 -54.9
-70.066720 43.053160 -57.3
-70.069098 43.053199 -91.7
-70.071276 43.053224 -99.7
-70.073478 43.053371 -105.2
-70.075770 43.053490 -112.5
-70.081290 43.053582 -114.6
-70.079176 43.053621 -113.1
-70.077234 43.053649 -114.9
-70.077687 43.058721 -110.9
-70.075445 43.058729 -105.8
-70.073228 43.058749 -101.5
-70.081303 43.058776 -117.0
-70.067120 43.058876 -56.4
-70.070751 43.058887 -75.9
-70.068587 43.058996 -63.4
-70.079077 43.064318 -100.9
-70.081182 43.064318 -106.1
-70.076837 43.064418 -93.0
-70.074809 43.064465 -89.3
-70.070315 43.064621 -72.5
-70.072378 43.064649 -84.1
-70.068123 43.064787 -57.3
-70.085659 43.053537 -125.9
-70.083256 43.053546 -121.3
-70.089852 43.053626 -132.6
-70.087688 43.053674 -128.0
-70.093921 43.053765 -135.3
-70.095985 43.053774 -136.9
-70.099468 43.053821 -139.3
-70.091743 43.053857 -136.2
-70.097888 43.053901 -137.8
-70.088366 43.058690 -110.3
-70.086074 43.058793 -114.3
-70.089704 43.058901 -110.0
-70.083446 43.058949 -118.0
-70.091971 43.058993 -112.8
-70.094199 43.059076 -117.3
-70.096766 43.059104 -125.6
-70.099093 43.059343 -130.8
-70.087302 43.064160 -102.1
-70.093949 43.064168 -103.6
-70.096229 43.064240 -110.3
-70.089643 43.064260 -100.6
-70.083096 43.064318 -106.1
-70.085138 43.064326 -103.9
-70.091871 43.064335 -100.6
-70.105710 43.051810 -140.8
-70.106188 43.052760 -141.7
-70.106943 43.054121 -138.4
-70.107835 43.055429 -132.9
-70.108288 43.056596 -141.4
-70.108879 43.058457 -145.7
-70.109357 43.059865 -144.2
-70.110077 43.061382 -143.0
-70.110241 43.062468 -145.7
-70.110907 43.064171 -143.0
-70.111824 43.065165 -138.7
-70.112243 43.066543 -131.4
-70.011380 43.067532 -135.3
-70.014764 43.069640 -127.7
-70.015722 43.075421 -125.9
-70.016017 43.081146 -120.4
-70.016350 43.069779 -124.7
-70.018550 43.069790 -118.9
-70.021334 43.069937 -114.6
-70.023695 43.069976 -108.8
-70.025981 43.069987 -103.9
-70.028181 43.070079 -98.5
-70.030542 43.070182 -94.2
-70.017884 43.075504 -120.7
-70.024653 43.075526 -106.7
-70.020106 43.075560 -115.2
-70.022281 43.075607 -109.7
-70.026790 43.075637 -99.7
-70.028940 43.075674 -96.9
-70.030315 43.075876 -94.2
-70.032226 43.075943 -89.3
-70.029662 43.080929 -96.9
-70.031998 43.080949 -92.7
-70.027426 43.081029 -100.9
-70.022901 43.081093 -111.3
-70.020515 43.081129 -111.6
-70.025326 43.081168 -105.5
-70.018353 43.081237 -116.4
-70.031784 43.083415 -95.4
-70.033665 43.070046 -85.0
-70.041676 43.070065 -68.0
-70.039453 43.070085 -74.7
-70.047228 43.070132 -61.6
-70.043745 43.070149 -64.3
-70.045092 43.070151 -63.4
-70.035087 43.070185 -82.9
-70.037281 43.070185 -78.9
-70.049273 43.070196 -59.4
-70.048637 43.075571 -60.0
-70.046078 43.075626 -61.6
-70.038478 43.075687 -76.2
-70.041784 43.075699 -68.0
-70.044006 43.075718 -64.9
-70.034423 43.075771 -54.6
-70.036531 43.075826 -82.9
-70.039701 43.075862 -74.1
-70.034256 43.081051 -87.8
-70.036553 43.081062 -85.3
-70.038912 43.081079 -82.3
-70.041470 43.081090 -76.8
-70.043828 43.081182 -72.2
-70.046040 43.081237 -65.5
-70.048309 43.081304 -60.7
-70.045401 43.083087 -73.2
-70.038773 43.083124 -86.6
-70.047573 43.083126 -63.7
-70.042906 43.083151 -80.5
-70.040745 43.083187 -82.9
-70.036453 43.083224 -89.6
-70.034117 43.083324 -92.0
-70.062651 43.070024 -52.7
-70.056151 43.070060 -52.4
-70.058259 43.070060 -53.3
-70.053803 43.070124 -54.3
-70.060442 43.070179 -53.0
-70.051731 43.070224 -57.0
-70.063673 43.070318 -52.4
-70.065995 43.070621 -54.3
-70.052381 43.075499 -55.2
-70.050595 43.075543 -58.2
-70.063823 43.075562 -52.1
-70.065945 43.075626 -52.1
-70.053678 43.075662 -54.9
-70.056087 43.075746 -54.3
-70.058284 43.075782 -52.7
-70.061776 43.075785 -52.7
-70.060328 43.075849 -51.5
-70.061965 43.081029 -51.2
-70.063948 43.081037 -51.2
-70.065321 43.081112 -50.6
-70.059642 43.081221 -51.8
-70.057484 43.081257 -52.4
-70.052803 43.081268 -55.2
-70.050570 43.081304 -57.6
-70.054801 43.081360 -53.3
-70.058981 43.082904 -50.9
-70.056784 43.082987 -52.7
-70.054501 43.083079 -54.3
-70.050106 43.083182 -59.7
-70.059892 43.083237 -48.8
-70.052290 43.083262 -56.4
-70.063449 43.083274 -51.2
-70.061390 43.083293 -53.0
-70.079074 43.070335 -91.1
-70.076946 43.070390 -89.9
-70.081391 43.070399 -94.5
-70.074757 43.070401 -88.7
-70.070337 43.070429 -74.7
-70.072428 43.070429 -85.6
-70.068223 43.070510 -59.7
-70.068159 43.075665 -60.7
-70.069474 43.075801 -79.2
-70.071566 43.075837 -81.7
-70.076246 43.075885 -90.8
-70.073668 43.075904 -86.3
-70.078374 43.076076 -95.1
-70.080441 43.076124 -99.4
-70.071854 43.081554 -95.4
-70.080816 43.081579 -100.0
-70.067360 43.081662 -53.0
-70.078638 43.081662 -98.8
-70.073957 43.081690 -96.3
-70.069263 43.081737 -64.6
-70.076560 43.081782 -97.8
-70.086657 43.070371 -102.7
-70.083229 43.070390 -98.8
-70.091127 43.070435 -109.4
-70.088874 43.070462 -106.4
-70.084707 43.070501 -100.3
-70.093091 43.070571 -111.3
-70.095032 43.070626 -112.8
-70.097021 43.070646 -111.9
-70.098360 43.070774 -111.3
-70.099304 43.074765 -102.4
-70.083932 43.076112 -94.8
-70.098113 43.076129 -97.5
-70.096160 43.076157 -96.6
-70.092529 43.076196 -98.8
-70.088688 43.076212 -94.8
-70.090691 43.076212 -97.5
-70.086235 43.076232 -93.9
-70.094571 43.076240 -97.5
-70.093421 43.081265 -95.7
-70.090979 43.081301 -97.2
-70.095399 43.081318 -96.0
-70.085285 43.081340 -103.3
-70.083132 43.081404 -100.9
-70.088827 43.081449 -100.0
-70.086474 43.081468 -104.2
-70.098604 43.081485 -97.5
-70.096638 43.081493 -96.3
-70.112296 43.067693 -134.1
-70.105466 43.067787 -127.7
-70.103493 43.067807 -116.7
-70.100985 43.067899 -111.6
-70.113224 43.069368 -137.8
-70.102593 43.070787 -115.5
-70.100646 43.070826 -112.8
-70.105154 43.070843 -121.6
-70.106974 43.070868 -124.4
-70.109360 43.070876 -128.0
-70.111657 43.070885 -131.4
-70.114407 43.071060 -149.0
-70.114532 43.072071 -136.2
-70.099593 43.072582 -111.3
-70.102293 43.072685 -108.8
-70.104552 43.072749 -109.7
-70.108293 43.072801 -115.5
-70.110479 43.072818 -120.1
-70.105971 43.072876 -111.3
-70.112374 43.072993 -124.7
-70.114610 43.073057 -132.0
-70.114835 43.074032 -128.3
-70.115427 43.075218 -123.7
-70.113379 43.075660 -120.1
-70.111660 43.075699 -118.6
-70.109324 43.075737 -109.7
-70.102671 43.075749 -100.9
-70.104793 43.075757 -103.0
-70.100385 43.076007 -100.0
-70.105824 43.076279 -101.8
-70.107768 43.076804 -105.2
-70.116143 43.076921 -123.1
-70.110204 43.077051 -109.1
-70.112113 43.077510 -112.2
-70.114010 43.077999 -112.5
-70.103591 43.081407 -100.9
-70.105524 43.081487 -103.3
-70.101054 43.081518 -99.4
-70.112143 43.081568 -118.0
-70.109918 43.081599 -116.1
-70.107571 43.081607 -109.1
-70.114477 43.081640 -118.0
-70.116618 43.073082 -140.8
-70.118979 43.073265 -149.0
-70.121188 43.073293 -152.1
-70.124467 43.073318 -153.9
-70.122518 43.073346 -153.0
-70.128119 43.073454 -158.2
-70.126175 43.073493 -155.1
-70.132289 43.073507 -159.4
-70.130330 43.073574 -159.4
-70.116696 43.075532 -125.9
-70.116307 43.078357 -112.8
-70.117979 43.078887 -112.5
-70.120292 43.079190 -111.6
-70.117766 43.080085 -113.4
-70.118533 43.080987 -117.7
-70.116624 43.081871 -119.5
-70.118936 43.081999 -115.2
-70.119264 43.083112 -115.5
-70.148453 43.073443 -164.3
-70.146519 43.073454 -164.6
-70.141364 43.073496 -163.7
-70.144725 43.073557 -165.2
-70.133750 43.073574 -158.8
-70.143219 43.073576 -165.5
-70.138817 43.073626 -160.9
-70.136847 43.073718 -160.3
-70.135267 43.073737 -160.6
-70.148678 43.083243 -145.7
-70.165072 43.072962 -162.5
-70.160708 43.072993 -162.8
-70.163217 43.073018 -163.7
-70.154486 43.073035 -168.2
-70.152703 43.073101 -169.2
-70.157044 43.073124 -163.4
-70.158350 43.073132 -161.8
-70.150208 43.073312 -167.6
-70.005155 43.083596 -132.3
-70.011853 43.083646 -125.0
-70.014128 43.083685 -121.9
-70.007405 43.083690 -127.7
-70.009767 43.083718 -125.6
-70.002755 43.083771 -135.0
-69.999544 43.083815 -137.8
-70.001244 43.083815 -135.6
-70.012015 43.085993 -121.0
-70.008403 43.086054 -128.3
-70.009915 43.086065 -125.3
-70.014240 43.086112 -115.5
-70.013012 43.089112 -114.0
-70.010526 43.089221 -114.6
-70.015062 43.089243 -109.7
-70.008326 43.089257 -182.6
-70.003064 43.089282 -127.7
-70.000439 43.089310 -128.3
-70.005240 43.089476 -124.4
-70.015095 43.092876 -109.4
-70.007923 43.092965 -113.1
-70.012295 43.093051 -111.3
-70.010170 43.093076 -112.8
-70.006359 43.093196 -114.6
-70.003834 43.093618 -115.5
-70.001484 43.094096 -119.2
-70.004042 43.097179 -111.3
-70.012028 43.097182 -110.3
-69.999820 43.097185 -116.4
-70.002195 43.097187 -115.5
-70.005506 43.097215 -110.9
-70.007442 43.097226 -110.6
-70.013242 43.097237 -110.9
-70.015478 43.097240 -109.4
-70.009992 43.097310 -110.9
-70.027323 43.083476 -103.3
-70.018626 43.083529 -116.1
-70.025262 43.083532 -107.6
-70.029398 43.083543 -99.7
-70.021012 43.083557 -113.4
-70.016403 43.083593 -119.5
-70.022987 43.083651 -110.6
-70.028684 43.085668 -96.9
-70.026573 43.085732 -101.8
-70.023898 43.085785 -105.5
-70.018662 43.085793 -109.1
-70.021998 43.085860 -107.3
-70.030634 43.085871 -94.8
-70.020187 43.085896 -113.1
-70.016501 43.085996 -113.4
-70.031956 43.086065 -95.1
-70.024559 43.088768 -99.4
-70.026756 43.088887 -96.0
-70.022184 43.088904 -102.1
-70.019623 43.088960 -104.9
-70.028956 43.088962 -94.2
-70.031131 43.088974 -94.8
-70.017548 43.089040 -107.0
-70.023731 43.092310 -97.2
-70.027917 43.092329 -94.8
-70.029178 43.092332 -94.2
-70.032715 43.092332 -95.7
-70.026606 43.092404 -95.7
-70.024942 43.092412 -95.4
-70.030492 43.092524 -94.8
-70.017056 43.093026 -105.8
-70.019470 43.093090 -101.8
-70.021317 43.093212 -99.1
-70.022931 43.093471 -97.5
-70.024892 43.093626 -96.9
-70.026353 43.093654 -95.4
-70.028628 43.093940 -95.7
-70.030828 43.094218 -93.3
-70.031690 43.096649 -90.5
-70.030176 43.096665 -90.2
-70.028565 43.096737 -96.0
-70.026278 43.096849 -98.5
-70.024378 43.097051 -99.1
-70.022028 43.097076 -100.9
-70.019728 43.097176 -105.2
-70.017478 43.097268 -107.9
-70.034178 43.085965 -95.1
-70.036626 43.086096 -94.5
-70.038337 43.086207 -92.7
-70.039784 43.086235 -90.8
-70.041856 43.086243 -87.2
-70.046287 43.086337 -78.6
-70.043953 43.086390 -85.3
-70.048234 43.086437 -64.3
-70.033578 43.088993 -97.2
-70.039159 43.089096 -94.5
-70.036748 43.089104 -97.5
-70.041342 43.089104 -91.7
-70.043751 43.089104 -89.9
-70.048195 43.089135 -65.2
-70.045923 43.089199 -81.4
-70.047695 43.091912 -75.3
-70.049281 43.091924 -64.0
-70.045873 43.092024 -89.0
-70.036573 43.092029 -100.6
-70.041042 43.092096 -96.3
-70.043340 43.092160 -93.3
-70.038459 43.092243 -98.5
-70.034887 43.092279 -98.5
-70.033176 43.094504 -96.9
-70.035698 43.094607 -100.6
-70.038081 43.094910 -101.2
-70.040417 43.095179 -98.5
-70.042690 43.095224 -95.1
-70.044948 43.095318 -91.4
-70.047206 43.095482 -82.6
-70.033787 43.096585 -98.8
-70.035684 43.096668 -101.8
-70.037106 43.096704 -101.5
-70.039342 43.096771 -100.6
-70.041726 43.096954 -95.7
-70.043937 43.097001 -94.8
-70.046034 43.097093 -90.8
-70.048206 43.097224 -83.8
-70.049023 43.099785 -76.8
-70.046665 43.099849 -87.8
-70.044231 43.099885 -93.6
-70.033409 43.099993 -106.1
-70.042045 43.099996 -96.3
-70.039812 43.100012 -99.4
-70.035331 43.100068 -105.2
-70.065782 43.084010 -50.9
-70.049570 43.086493 -62.5
-70.051578 43.086632 -57.9
-70.055884 43.086760 -53.3
-70.053687 43.086807 -54.9
-70.064510 43.086918 -50.0
-70.057756 43.086954 -51.2
-70.061091 43.086990 -51.2
-70.062427 43.087029 -50.9
-70.059192 43.087110 -48.2
-70.065832 43.087471 -50.3
-70.060304 43.088860 -49.4
-70.055087 43.088896 -53.9
-70.057120 43.088924 -52.4
-70.050453 43.088996 -59.7
-70.052826 43.088996 -56.7
-70.061627 43.089035 -51.2
-70.064060 43.089118 -50.6
-70.066046 43.089612 -49.1
-70.059043 43.091685 -51.5
-70.062488 43.091804 -48.2
-70.051665 43.091821 -58.5
-70.061027 43.091832 -49.1
-70.056710 43.091840 -53.0
-70.063763 43.091840 -50.3
-70.053912 43.091979 -54.9
-70.065846 43.092329 -49.7
-70.051901 43.095621 -57.9
-70.049642 43.095632 -64.6
-70.053999 43.095676 -54.6
-70.056371 43.095807 -52.7
-70.058893 43.095843 -51.5
-70.063424 43.095974 -48.5
-70.065071 43.095974 -46.9
-70.061291 43.096010 -49.7
-70.050303 43.097343 -66.1
-70.052427 43.097526 -58.5
-70.054899 43.097765 -54.9
-70.057071 43.097979 -53.0
-70.059341 43.098143 -51.8
-70.065385 43.098301 -48.2
-70.061277 43.098365 -50.6
-70.063238 43.098421 -49.1
-70.053591 43.099987 -57.0
-70.051032 43.099996 -61.9
-70.055613 43.100062 -53.6
-70.067835 43.084157 -52.1
-70.076474 43.084201 -95.4
-70.072104 43.084212 -90.5
-70.080879 43.084276 -99.4
-70.074296 43.084285 -92.7
-70.078816 43.084296 -97.8
-70.069927 43.084304 -61.0
-70.067685 43.087551 -50.3
-70.077588 43.087754 -93.6
-70.071041 43.087782 -54.3
-70.075471 43.087801 -89.9
-70.068874 43.087810 -50.9
-70.073307 43.087837 -80.8
-70.079879 43.087993 -96.0
-70.082221 43.088057 -96.9
-70.069452 43.089532 -50.3
-70.067474 43.089587 -49.4
-70.071604 43.089624 -53.6
-70.073646 43.089787 -82.3
-70.075760 43.089926 -89.9
-70.080479 43.089935 -97.2
-70.077777 43.090054 -93.9
-70.079754 43.092162 -105.8
-70.068099 43.092218 -48.8
-70.073982 43.092235 -58.5
-70.072543 43.092246 -52.7
-70.070466 43.092337 -49.4
-70.081371 43.092382 -106.7
-70.078566 43.096285 -90.5
-70.080807 43.096301 -87.2
-70.071679 43.096468 -48.5
-70.075749 43.096507 -59.7
-70.073882 43.096571 -49.7
-70.069377 43.096599 -47.9
-70.066871 43.096671 -48.5
-70.080882 43.098457 -89.9
-70.078591 43.098668 -91.1
-70.076613 43.098787 -53.9
-70.067210 43.098890 -44.8
-70.074385 43.098954 -49.1
-70.072807 43.098982 -48.2
-70.068663 43.098999 -48.5
-70.070679 43.099026 -47.5
-70.085160 43.084257 -103.3
-70.083132 43.084321 -102.4
-70.091043 43.084321 -99.1
-70.086613 43.084340 -103.6
-70.088629 43.084376 -102.7
-70.097779 43.084410 -100.9
-70.093074 43.084412 -96.3
-70.095841 43.084449 -96.3
-70.098443 43.087390 -100.6
-70.096591 43.087529 -98.8
-70.094288 43.087771 -98.1
-70.092210 43.087826 -100.9
-70.088443 43.087901 -103.3
-70.084524 43.087910 -99.7
-70.086591 43.087929 -101.5
-70.089782 43.087937 -103.0
-70.096229 43.090015 -102.1
-70.098207 43.090015 -105.2
-70.087993 43.090118 -112.2
-70.089582 43.090126 -109.4
-70.093777 43.090143 -105.2
-70.085977 43.090146 -108.2
-70.091674 43.090174 -105.8
-70.082921 43.090193 -101.8
-70.083324 43.092382 -107.6
-70.088182 43.092410 -99.4
-70.085702 43.092454 -104.2
-70.090585 43.092462 -94.2
-70.093077 43.092565 -91.4
-70.098799 43.092582 -94.2
-70.095179 43.092646 -93.3
-70.096432 43.092710 -93.0
-70.099279 43.095293 -81.4
-70.096846 43.095454 -82.3
-70.094693 43.095685 -81.7
-70.092527 43.095960 -80.8
-70.090185 43.095979 -81.1
-70.087782 43.096071 -82.6
-70.085566 43.096118 -83.5
-70.083213 43.096376 -85.3
-70.095282 43.097579 -82.9
-70.097524 43.097615 -82.3
-70.093166 43.097671 -84.1
-70.091038 43.097921 -85.3
-70.088810 43.098004 -86.9
-70.086679 43.098151 -89.0
-70.085102 43.098179 -89.3
-70.083063 43.098307 -88.7
-70.109368 43.084174 -122.5
-70.113738 43.084199 -118.9
-70.115938 43.084274 -117.7
-70.104635 43.084276 -109.1
-70.111102 43.084349 -122.5
-70.100177 43.084435 -104.5
-70.107096 43.084440 -114.9
-70.102263 43.084462 -106.4
-70.115200 43.086618 -106.4
-70.112974 43.086649 -110.0
-70.111091 43.086721 -112.8
-70.108893 43.086935 -114.9
-70.106707 43.087010 -110.0
-70.104449 43.087137 -104.2
-70.102188 43.087168 -99.7
-70.099966 43.087454 -100.0
-70.112425 43.089757 -99.1
-70.114622 43.089785 -95.7
-70.107841 43.089807 -96.6
-70.105518 43.089851 -99.4
-70.100921 43.089862 -107.9
-70.110052 43.089871 -98.8
-70.103132 43.089926 -104.5
-70.101374 43.092512 -96.6
-70.103546 43.092604 -99.4
-70.106010 43.092649 -100.3
-70.114161 43.092765 -90.8
-70.110405 43.092768 -103.9
-70.111775 43.092776 -100.9
-70.108346 43.092787 -102.1
-70.110408 43.095160 -108.2
-70.112819 43.095204 -104.2
-70.108008 43.095207 -104.5
-70.103563 43.095218 -92.0
-70.105935 43.095218 -98.8
-70.114564 43.095260 -98.5
-70.101252 43.095329 -85.3
-70.102143 43.097582 -79.2
-70.099618 43.097601 -80.5
-70.104266 43.097637 -79.6
-70.106353 43.097729 -80.8
-70.110836 43.097846 -98.8
-70.108514 43.097849 -91.4
-70.114955 43.097862 -100.6
-70.113022 43.097949 -101.2
-70.120622 43.084012 -111.6
-70.118061 43.084151 -115.5
-70.121903 43.084243 -108.2
-70.120244 43.085254 -111.9
-70.131133 43.085929 -110.6
-70.129061 43.085949 -111.6
-70.132642 43.085949 -110.6
-70.123975 43.085979 -110.3
-70.127580 43.085987 -111.3
-70.125094 43.086082 -110.6
-70.121189 43.086424 -108.2
-70.118917 43.086451 -106.4
-70.117019 43.086507 -104.5
-70.121039 43.088457 -104.2
-70.132217 43.089343 -110.6
-70.129805 43.089401 -106.4
-70.123478 43.089468 -102.1
-70.127683 43.089485 -103.6
-70.121355 43.089551 -98.8
-70.124797 43.089596 -103.6
-70.118817 43.089646 -90.5
-70.116683 43.089737 -92.4
-70.122322 43.090821 -97.8
-70.123028 43.091860 -96.3
-70.116697 43.092618 -84.7
-70.119058 43.092699 -87.5
-70.123769 43.093407 -91.4
-70.124211 43.094740 -98.8
-70.118369 43.095368 -95.7
-70.116900 43.095379 -96.3
-70.120017 43.095496 -97.5
-70.121486 43.095560 -96.0
-70.130467 43.095601 -107.9
-70.132728 43.095657 -115.8
-70.128269 43.095712 -105.2
-70.124047 43.095779 -97.5
-70.126308 43.095796 -100.3
-70.124867 43.096607 -99.4
-70.125330 43.098007 -104.2
-70.118650 43.098082 -106.4
-70.116389 43.098121 -100.9
-70.120922 43.098257 -108.5
-70.122933 43.098282 -108.8
-70.128208 43.098565 -113.7
-70.126211 43.098596 -106.4
-70.130355 43.098887 -115.2
-70.132278 43.098996 -118.6
-70.146258 43.083485 -136.9
-70.144614 43.083704 -125.0
-70.142669 43.084232 -120.1
-70.139294 43.085190 -119.8
-70.137214 43.085496 -117.0
-70.134880 43.085782 -112.8
-70.140769 43.089376 -117.0
-70.136603 43.089451 -114.3
-70.138647 43.089468 -115.2
-70.143064 43.089521 -119.5
-70.134230 43.089546 -114.0
-70.146078 43.089676 -121.9
-70.148147 43.089804 -127.4
-70.137100 43.095571 -132.0
-70.134614 43.095654 -121.6
-70.134180 43.099354 -125.3
-70.150530 43.089626 -130.5
-70.152578 43.089837 -140.2
-70.154333 43.090010 -147.8
-70.156567 43.090110 -153.3
-70.158775 43.090201 -162.8
-70.011573 43.100121 -114.3
-70.004962 43.100135 -111.3
-70.007048 43.100193 -115.2
-70.002790 43.100207 -107.3
-70.013384 43.100232 -111.6
-70.009212 43.100257 -113.7
-70.000653 43.100271 -106.4
-70.015681 43.100335 -111.3
-70.006659 43.103154 -115.5
-70.004673 43.103182 -117.0
-70.008809 43.103185 -116.4
-70.002548 43.103190 -114.3
-70.000162 43.103299 -105.2
-70.012206 43.103304 -113.7
-70.010295 43.103312 -114.9
-70.014242 43.103315 -113.4
-70.013092 43.106037 -113.1
-70.014690 43.106040 -114.0
-70.007906 43.106210 -114.6
-70.002495 43.106235 -113.4
-70.004495 43.106246 -115.8
-70.005881 43.106257 -113.4
-70.000495 43.106290 -110.0
-70.009206 43.106293 -113.7
-70.011217 43.106332 -114.0
-70.007278 43.109182 -114.6
-70.001942 43.109199 -110.9
-69.999506 43.109215 -110.6
-70.005103 43.109254 -113.1
-70.011140 43.109260 -115.2
-70.009053 43.109293 -114.0
-70.012515 43.109479 -114.0
-70.014651 43.109499 -113.4
-70.014637 43.111237 -112.8
-70.011001 43.111357 -114.9
-70.012887 43.111357 -112.2
-70.008987 43.111365 -113.4
-70.006501 43.111482 -111.3
-70.004415 43.111585 -112.2
-70.002753 43.111601 -110.6
-70.001453 43.111646 -113.1
-69.999878 43.111737 -110.9
-70.015409 43.114699 -111.3
-70.013034 43.114890 -110.6
-70.009684 43.114935 -110.6
-70.006434 43.114971 -107.6
-70.000073 43.115004 -112.8
-70.007859 43.115010 -106.7
-70.002248 43.115079 -110.0
-70.010995 43.115085 -109.7
-70.004587 43.115090 -108.2
-70.029601 43.100118 -103.6
-70.017931 43.100151 -110.0
-70.031101 43.100165 -104.5
-70.023553 43.100226 -107.0
-70.027751 43.100229 -103.9
-70.021878 43.100246 -106.7
-70.025528 43.100293 -106.4
-70.019992 43.100335 -111.6
-70.016167 43.103418 -113.7
-70.018328 43.103493 -112.5
-70.024712 43.103568 -109.1
-70.026851 43.103568 -108.5
-70.022251 43.103576 -110.3
-70.020103 43.103585 -113.7
-70.029037 43.103671 -107.6
-70.031359 43.103718 -105.8
-70.032459 43.105954 -104.5
-70.030484 43.106018 -105.8
-70.028523 43.106035 -107.0
-70.018640 43.106040 -112.5
-70.024223 43.106062 -109.1
-70.026337 43.106090 -107.9
-70.016715 43.106112 -111.9
-70.020126 43.106115 -110.6
-70.022026 43.106262 -109.7
-70.028184 43.108712 -107.0
-70.032195 43.108715 -104.2
-70.030159 43.108751 -105.5
-70.026184 43.108907 -108.2
-70.024034 43.109035 -109.4
-70.021737 43.109190 -110.0
-70.019537 43.109354 -110.9
-70.016326 43.109546 -112.8
-70.025395 43.110654 -107.9
-70.020948 43.110762 -109.7
-70.028695 43.110765 -106.1
-70.031081 43.110793 -103.3
-70.026756 43.110810 -107.6
-70.022945 43.110837 -109.1
-70.019059 43.110937 -110.3
-70.016762 43.111082 -112.2
-70.031642 43.114246 -102.4
-70.025992 43.114326 -106.7
-70.029253 43.114365 -104.5
-70.027256 43.114482 -106.1
-70.024031 43.114490 -109.4
-70.017220 43.114590 -110.3
-70.022095 43.114590 -111.9
-70.020520 43.114601 -110.9
-70.018645 43.114618 -110.0
-70.037590 43.100104 -101.2
-70.048410 43.103326 -84.1
-70.044790 43.103493 -91.7
-70.046312 43.103521 -89.3
-70.040548 43.103546 -97.5
-70.042731 43.103585 -95.1
-70.038212 43.103610 -100.0
-70.035828 43.103637 -103.0
-70.033295 43.103682 -104.2
-70.047599 43.105185 -84.7
-70.045515 43.105212 -89.6
-70.043328 43.105387 -92.7
-70.041184 43.105499 -95.1
-70.039037 43.105535 -98.1
-70.036851 43.105718 -100.3
-70.034731 43.105762 -103.0
-70.046174 43.108360 -86.0
-70.036812 43.108468 -100.9
-70.042017 43.108471 -93.9
-70.048171 43.108471 -71.9
-70.044191 43.108479 -92.4
-70.038634 43.108515 -99.1
-70.039970 43.108615 -97.5
-70.034467 43.108635 -102.7
-70.036876 43.110712 -98.8
-70.033078 43.110721 -102.4
-70.038773 43.110751 -96.0
-70.034528 43.110768 -100.6
-70.046799 43.110790 -75.6
-70.040992 43.110815 -93.3
-70.049282 43.110818 -59.7
-70.044577 43.110835 -87.2
-70.042554 43.110843 -92.0
-70.047371 43.113993 -57.9
-70.040543 43.114074 -90.5
-70.044974 43.114121 -67.7
-70.042891 43.114157 -85.6
-70.049368 43.114157 -54.9
-70.038270 43.114174 -93.9
-70.036198 43.114210 -96.0
-70.033951 43.114229 -99.1
-70.057796 43.100174 -51.8
-70.059954 43.100201 -50.3
-70.062216 43.100321 -49.4
-70.064449 43.100476 -48.2
-70.064138 43.103154 -48.2
-70.062127 43.103174 -48.8
-70.065610 43.103321 -47.2
-70.052518 43.103365 -56.7
-70.050257 43.103401 -63.1
-70.059768 43.103421 -49.4
-70.057835 43.103465 -50.9
-70.055924 43.103521 -52.7
-70.054363 43.103585 -53.9
-70.051643 43.105104 -56.7
-70.049657 43.105132 -64.0
-70.053766 43.105168 -53.9
-70.055935 43.105307 -52.1
-70.057832 43.105371 -50.6
-70.059918 43.105474 -49.7
-70.062052 43.105482 -49.1
-70.064310 43.105554 -48.2
-70.050268 43.108251 -58.2
-70.052441 43.108371 -54.6
-70.054577 43.108399 -52.4
-70.058657 43.108435 -50.3
-70.056560 43.108462 -51.5
-70.063849 43.108518 -48.5
-70.062066 43.108526 -49.1
-70.060591 43.108537 -49.4
-70.065235 43.109024 -47.9
-70.051229 43.110818 -53.9
-70.052877 43.110874 -52.7
-70.054988 43.110946 -51.8
-70.057046 43.111021 -50.0
-70.059093 43.111168 -49.7
-70.063488 43.111701 -48.2
-70.065832 43.111718 -48.2
-70.061177 43.111765 -48.5
-70.056035 43.114021 -50.9
-70.053938 43.114076 -52.7
-70.051616 43.114140 -53.0
-70.057382 43.114149 -50.6
-70.059054 43.114240 -49.7
-70.063724 43.114243 -48.8
-70.061527 43.114296 -49.1
-70.065621 43.114685 -48.5
-70.066410 43.101090 -46.9
-70.068588 43.101174 -45.4
-70.082085 43.101201 -83.5
-70.079193 43.101385 -89.0
-70.070629 43.101476 -46.9
-70.072693 43.101662 -47.5
-70.076927 43.101707 -90.5
-70.075010 43.101846 -50.0
-70.079032 43.103418 -99.4
-70.081485 43.103501 -93.3
-70.073535 43.103529 -48.2
-70.071543 43.103537 -46.0
-70.076991 43.103537 -81.1
-70.069352 43.103593 -46.6
-70.067360 43.103657 -46.9
-70.074963 43.103740 -49.7
-70.066360 43.105940 -47.5
-70.068149 43.106115 -46.9
-70.070152 43.106254 -46.6
-70.071768 43.106401 -45.7
-70.080760 43.106446 -110.0
-70.078732 43.106465 -100.9
-70.075977 43.106521 -64.3
-70.073921 43.106529 -49.4
-70.082738 43.106565 -109.7
-70.067499 43.109079 -47.9
-70.069452 43.109151 -47.2
-70.076741 43.109151 -61.9
-70.078657 43.109160 -103.6
-70.071129 43.109171 -46.6
-70.074360 43.109171 -49.1
-70.080110 43.109215 -109.1
-70.072382 43.109299 -46.9
-70.081874 43.109307 -117.0
-70.073860 43.111785 -47.9
-70.070229 43.111821 -47.2
-70.067963 43.111857 -46.9
-70.077041 43.111940 -82.6
-70.071443 43.111960 -47.2
-70.081549 43.111993 -98.8
-70.079410 43.112021 -91.7
-70.072207 43.114654 -48.2
-70.070029 43.114718 -47.9
-70.067888 43.114746 -48.5
-70.074713 43.114765 -54.3
-70.078907 43.114810 -85.6
-70.082327 43.114810 -91.4
-70.077043 43.114849 -86.9
-70.080335 43.114885 -84.4
-70.097838 43.100543 -76.2
-70.095585 43.100710 -78.3
-70.093493 43.100921 -79.9
-70.091038 43.101043 -78.6
-70.088785 43.101126 -80.8
-70.086468 43.101218 -81.4
-70.084566 43.101246 -81.1
-70.096874 43.103351 -78.6
-70.098979 43.103368 -77.4
-70.085854 43.103426 -81.7
-70.087671 43.103462 -82.3
-70.094407 43.103471 -79.9
-70.083891 43.103490 -85.6
-70.092079 43.103490 -80.8
-70.089574 43.103537 -82.6
-70.084804 43.106379 -104.9
-70.099082 43.106515 -89.9
-70.087110 43.106518 -100.3
-70.090929 43.106518 -86.9
-70.094985 43.106582 -86.9
-70.088849 43.106601 -91.4
-70.097177 43.106635 -88.4
-70.093032 43.106665 -86.3
-70.084041 43.109207 -123.1
-70.087963 43.109224 -126.2
-70.091618 43.109268 -122.2
-70.086057 43.109287 -125.6
-70.093721 43.109332 -125.3
-70.096391 43.109404 -141.1
-70.089391 43.109443 -125.3
-70.097869 43.109479 -110.9
-70.097719 43.111871 -138.1
-70.095378 43.111946 -132.6
-70.089641 43.111974 -131.1
-70.092021 43.112010 -129.8
-70.087285 43.112021 -118.3
-70.083129 43.112076 -104.2
-70.085018 43.112085 -111.3
-70.095053 43.114449 -126.2
-70.089341 43.114496 -106.4
-70.097019 43.114504 -126.2
-70.087138 43.114524 -107.0
-70.091421 43.114587 -120.7
-70.098472 43.114604 -125.6
-70.092749 43.114651 -127.4
-70.084857 43.114654 -101.8
-70.113805 43.100465 -99.7
-70.102527 43.100476 -73.8
-70.105053 43.100476 -72.2
-70.115642 43.100490 -103.9
-70.109222 43.100521 -81.1
-70.107275 43.100532 -74.1
-70.111269 43.100549 -93.6
-70.100243 43.100607 -74.1
-70.101514 43.103451 -79.9
-70.103800 43.103587 -82.6
-70.109364 43.103632 -97.5
-70.111736 43.103696 -109.7
-70.115919 43.103701 -119.8
-70.105119 43.103707 -83.8
-70.107192 43.103707 -87.2
-70.113747 43.103760 -118.3
-70.103486 43.106293 -118.3
-70.111964 43.106326 -134.7
-70.105547 43.106385 -125.3
-70.114214 43.106390 -136.2
-70.101578 43.106404 -99.4
-70.109942 43.106429 -133.5
-70.107494 43.106449 -130.5
-70.110597 43.109199 -136.6
-70.108400 43.109210 -136.2
-70.106328 43.109237 -135.0
-70.112783 43.109262 -136.6
-70.102294 43.109293 -135.6
-70.103942 43.109312 -134.1
-70.115283 43.109314 -136.6
-70.099983 43.109415 -130.5
-70.115261 43.111717 -132.9
-70.102297 43.111843 -134.4
-70.105903 43.111887 -134.4
-70.103703 43.111907 -134.1
-70.111028 43.111911 -131.4
-70.108139 43.111914 -137.8
-70.100050 43.111935 -135.6
-70.112661 43.111967 -134.4
-70.109761 43.114406 -80.8
-70.112108 43.114406 -74.1
-70.107500 43.114409 -91.4
-70.114622 43.114470 -77.4
-70.105364 43.114528 -105.2
-70.102853 43.114575 -113.7
-70.100289 43.114703 -127.1
-70.126053 43.100504 -123.7
-70.128803 43.100576 -127.7
-70.117525 43.100618 -109.4
-70.119722 43.100674 -116.4
-70.124294 43.100690 -121.6
-70.130975 43.100704 -125.9
-70.121919 43.100737 -118.3
-70.126442 43.101490 -129.2
-70.126933 43.102410 -133.5
-70.122475 43.103579 -137.8
-70.131217 43.103584 -142.3
-70.129105 43.103612 -143.9
-70.124736 43.103651 -138.4
-70.120492 43.103765 -131.7
-70.126847 43.103799 -139.9
-70.118105 43.103832 -123.4
-70.127864 43.104681 -144.2
-70.128544 43.105489 -145.4
-70.118269 43.106307 -138.1
-70.122767 43.106396 -143.6
-70.124839 43.106411 -147.2
-70.116272 43.106426 -137.2
-70.130767 43.106428 -150.0
-70.128922 43.106456 -149.4
-70.120444 43.106471 -140.5
-70.126797 43.106559 -148.1
-70.129275 43.107817 -146.0
-70.132289 43.108542 -144.8
-70.126361 43.108731 -147.2
-70.124478 43.108742 -150.0
-70.130242 43.108775 -145.4
-70.127630 43.108867 -146.3
-70.122217 43.108989 -149.0
-70.120344 43.109092 -142.3
-70.118322 43.109131 -139.3
-70.132739 43.109298 -140.8
-70.130042 43.109806 -143.6
-70.130308 43.110825 -98.8
-70.117444 43.111836 -132.6
-70.132717 43.111845 -93.6
-70.119494 43.111853 -128.0
-70.121717 43.111953 -105.8
-70.126300 43.111978 -95.7
-70.124117 43.112053 -93.3
-70.128536 43.112117 -91.1
-70.130711 43.112484 -90.2
-70.131392 43.113917 -86.6
-70.125903 43.114456 -89.0
-70.127861 43.114489 -90.2
-70.123567 43.114511 -81.1
-70.119986 43.114531 -78.0
-70.116505 43.114561 -81.1
-70.121355 43.114567 -76.8
-70.129344 43.114636 -89.0
-70.117686 43.114689 -79.2
-70.131755 43.114892 -86.9
-70.131958 43.115823 -95.1
-70.133472 43.103517 -148.4
-70.142461 43.105986 -135.9
-70.148308 43.106020 -138.4
-70.145886 43.106031 -145.1
-70.144028 43.106114 -131.4
-70.140378 43.106128 -145.7
-70.136361 43.106223 -151.8
-70.138283 43.106311 -153.9
-70.134644 43.106378 -149.7
-70.133100 43.106445 -149.7
-70.134533 43.108578 -144.2
-70.137533 43.109073 -124.4
-70.144547 43.109150 -118.9
-70.139917 43.109181 -116.4
-70.135047 43.109278 -136.9
-70.146955 43.109298 -104.5
-70.141900 43.109300 -122.2
-70.149395 43.111578 -94.8
-70.146808 43.111689 -106.7
-70.144286 43.111784 -115.2
-70.139380 43.111878 -105.8
-70.141992 43.111895 -111.6
-70.137208 43.112056 -98.1
-70.134750 43.112092 -93.0
-70.133825 43.114706 -88.7
-70.144164 43.114748 -121.3
-70.135833 43.114770 -101.5
-70.137942 43.114778 -100.3
-70.140175 43.114850 -110.6
-70.148331 43.114936 -106.7
-70.149337 43.114956 -107.3
-70.142497 43.114978 -111.3
-70.146590 43.115206 -110.0
-70.144980 43.115334 -122.2
-70.156990 43.105609 -156.4
-70.154731 43.105703 -155.1
-70.150428 43.105953 -150.0
-70.152511 43.105970 -160.0
-70.150069 43.109259 -92.4
-70.151562 43.109323 -94.8
-70.160020 43.109323 -135.6
-70.155629 43.109336 -117.7
-70.157912 43.109409 -133.2
-70.153695 43.109495 -103.9
-70.162706 43.109625 -143.6
-70.165543 43.109825 -149.0
-70.158329 43.111220 -121.3
-70.164326 43.111270 -157.0
-70.161818 43.111292 -139.6
-70.156245 43.111314 -107.6
-70.154076 43.111425 -100.6
-70.159709 43.111486 -125.9
-70.151565 43.111667 -96.6
-70.165120 43.113048 -158.8
-70.162951 43.113259 -154.5
-70.160540 43.113548 -147.5
-70.158220 43.113734 -127.7
-70.156098 43.113984 -112.5
-70.154468 43.113995 -106.4
-70.151306 43.114889 -108.8
-70.154909 43.116073 -123.4
-70.005409 43.117124 -107.6
-70.015667 43.117137 -104.5
-70.013131 43.117154 -104.9
-70.006859 43.117199 -105.5
-70.011331 43.117257 -104.5
-70.003120 43.117271 -109.4
-70.008906 43.117282 -105.5
-70.001009 43.117332 -112.5
-70.015917 43.119926 -93.9
-70.013753 43.119954 -95.4
-70.011028 43.120174 -98.5
-70.008878 43.120218 -100.9
-69.999581 43.120332 -114.3
-70.006767 43.120604 -103.9
-70.004467 43.121274 -108.2
-70.000542 43.121335 -112.8
-70.002578 43.121437 -110.6
-70.012815 43.123062 -93.3
-70.014940 43.123101 -92.0
-70.010540 43.123174 -96.0
-70.001553 43.123315 -109.4
-70.003915 43.123354 -107.0
-70.005990 43.123354 -99.7
-70.008240 43.123401 -98.8
-70.001151 43.124824 -110.9
-70.009587 43.124893 -94.8
-70.015462 43.124924 -88.4
-70.002740 43.124926 -107.3
-70.004976 43.124946 -102.4
-70.007362 43.124974 -99.1
-70.010987 43.124996 -96.0
-70.013001 43.125043 -91.4
-69.999687 43.126343 -107.9
-70.002023 43.126490 -103.6
-70.004712 43.126529 -100.3
-70.006862 43.126549 -96.6
-70.011562 43.126587 -89.6
-70.013948 43.126626 -87.8
-70.009148 43.126632 -94.2
-70.015237 43.126726 -86.0
-70.001159 43.128062 -104.5
-70.003784 43.128268 -99.4
-70.015159 43.128282 -83.2
-70.006059 43.128304 -96.0
-70.010634 43.128390 -90.2
-70.008098 43.128407 -92.4
-70.012809 43.128457 -87.2
-70.002745 43.130624 -97.5
-70.000495 43.130632 -103.3
-70.004681 43.130707 -94.2
-70.009670 43.130754 -86.9
-70.007245 43.130799 -90.8
-70.014006 43.130840 -81.1
-70.015370 43.130868 -82.6
-70.011631 43.130960 -84.1
-70.007717 43.132060 -90.8
-69.999556 43.132240 -99.7
-70.014092 43.133012 -80.5
-70.009940 43.133162 -84.1
-70.007567 43.133190 -89.9
-70.005070 43.133371 -91.7
-70.032615 43.117071 -95.7
-70.030315 43.117154 -98.1
-70.017781 43.117176 -102.7
-70.028128 43.117215 -100.0
-70.019667 43.117224 -102.1
-70.024417 43.117235 -101.5
-70.021292 43.117324 -101.2
-70.026167 43.117335 -100.6
-70.022617 43.117343 -100.3
-70.028876 43.119912 -88.7
-70.024728 43.119929 -87.5
-70.026340 43.119985 -86.6
-70.018128 43.119993 -92.4
-70.020653 43.120001 -89.3
-70.030915 43.120024 -89.6
-70.022965 43.120140 -87.8
-70.031462 43.122326 -75.9
-70.029476 43.122454 -77.4
-70.028012 43.122554 -75.9
-70.026226 43.122626 -76.8
-70.023751 43.122746 -80.5
-70.021612 43.122762 -82.0
-70.019790 43.122910 -85.6
-70.017301 43.123001 -88.4
-70.031263 43.124460 -73.5
-70.026798 43.124624 -75.3
-70.028998 43.124635 -74.7
-70.024323 43.124743 -78.0
-70.019987 43.124832 -84.1
-70.017437 43.124951 -86.6
-70.022037 43.124954 -80.8
-70.017237 43.126793 -82.3
-70.019534 43.126868 -79.9
-70.022048 43.126968 -76.8
-70.024523 43.126971 -76.2
-70.026534 43.127043 -73.5
-70.028960 43.127101 -71.6
-70.031335 43.127121 -68.9
-70.022498 43.128240 -76.5
-70.019623 43.128265 -79.2
-70.017473 43.128282 -80.8
-70.031446 43.128326 -67.7
-70.026784 43.128351 -73.5
-70.029171 43.128351 -71.6
-70.024420 43.128379 -74.7
-70.017731 43.130815 -78.3
-70.027932 43.130826 -70.7
-70.025456 43.130846 -72.8
-70.019745 43.130879 -76.5
-70.032382 43.130890 -64.6
-70.023281 43.130907 -74.1
-70.021145 43.130926 -75.6
-70.030257 43.130929 -67.7
-70.020867 43.132857 -75.0
-70.016492 43.132968 -78.3
-70.025232 43.133026 -72.5
-70.022792 43.133035 -73.2
-70.018656 43.133040 -77.1
-70.027418 43.133401 -71.3
-70.039468 43.117193 -82.9
-70.034912 43.117201 -93.3
-70.046210 43.117204 -55.2
-70.041716 43.117257 -69.5
-70.044013 43.117257 -58.5
-70.047771 43.117304 -53.9
-70.036996 43.117312 -88.1
-70.033087 43.119951 -87.8
-70.037532 43.119962 -80.2
-70.040241 43.119971 -66.4
-70.048207 43.119990 -54.6
-70.035499 43.120026 -85.0
-70.043549 43.120082 -57.0
-70.045646 43.120149 -55.5
-70.033735 43.122124 -75.6
-70.048329 43.122154 -55.5
-70.039554 43.122171 -61.9
-70.046146 43.122171 -56.1
-70.035810 43.122196 -69.8
-70.041613 43.122218 -58.8
-70.037182 43.122224 -66.8
-70.043785 43.122254 -57.3
-70.037918 43.124204 -62.8
-70.035771 43.124257 -66.1
-70.039991 43.124379 -61.3
-70.044560 43.124390 -58.2
-70.042213 43.124399 -61.0
-70.033485 43.124432 -70.1
-70.046557 43.124657 -56.4
-70.049154 43.124693 -53.0
-70.046193 43.126368 -56.1
-70.048204 43.126404 -53.0
-70.044110 43.126449 -58.2
-70.042474 43.126551 -59.4
-70.040238 43.126799 -61.9
-70.038229 43.126871 -62.2
-70.035507 43.126918 -62.8
-70.033321 43.127129 -65.8
-70.047018 43.127812 -55.2
-70.048329 43.127887 -53.9
-70.044482 43.128015 -57.3
-70.042310 43.128040 -59.7
-70.036368 43.128060 -62.5
-70.034107 43.128176 -63.7
-70.039977 43.128187 -61.3
-70.037654 43.128287 -62.8
-70.048441 43.130674 -54.6
-70.039363 43.130737 -60.4
-70.043507 43.130829 -58.2
-70.036679 43.130846 -62.2
-70.034282 43.130854 -62.5
-70.041224 43.130904 -59.1
-70.045804 43.130912 -56.7
-70.065121 43.116799 -47.5
-70.063763 43.116846 -48.2
-70.060354 43.117076 -50.0
-70.061616 43.117085 -49.1
-70.053913 43.117196 -50.9
-70.056285 43.117196 -50.6
-70.058143 43.117251 -49.7
-70.049904 43.117268 -53.0
-70.052016 43.117296 -52.7
-70.050554 43.120121 -53.0
-70.059941 43.120121 -50.0
-70.058193 43.120149 -50.0
-70.061638 43.120185 -48.8
-70.064210 43.120185 -48.5
-70.056332 43.120249 -50.9
-70.054124 43.120343 -51.5
-70.051802 43.120801 -52.4
-70.065360 43.121179 -47.9
-70.050627 43.122154 -53.0
-70.054699 43.122190 -51.2
-70.063288 43.122193 -48.5
-70.056746 43.122218 -49.1
-70.058854 43.122229 -49.7
-70.052788 43.122246 -52.1
-70.060852 43.122301 -50.0
-70.065971 43.122946 -46.3
-70.055746 43.124593 -50.3
-70.057293 43.124685 -50.6
-70.053949 43.124704 -51.2
-70.050977 43.124749 -51.5
-70.052238 43.124840 -51.8
-70.062524 43.124860 -48.5
-70.064435 43.124907 -48.5
-70.060991 43.125137 -48.8
-70.058718 43.125376 -49.4
-70.056507 43.125771 -49.7
-70.054646 43.126010 -46.0
-70.053224 43.126093 -51.2
-70.050702 43.126387 -52.4
-70.059491 43.127382 -49.4
-70.057257 43.127465 -50.6
-70.060766 43.127557 -49.1
-70.052885 43.127610 -51.8
