-70.718327 43.006823 -18.9
-70.718904 43.006823 -18.6
-70.720471 43.006832 -16.2
-70.716765 43.006837 -18.9
-70.719413 43.006840 -18.3
-70.722007 43.006843 -14.9
-70.721188 43.006859 -14.0
-70.722638 43.006873 -13.1
-70.723124 43.006879 -13.7
-70.723585 43.006907 -11.9
-70.724127 43.006918 -10.1
-70.724782 43.006923 -8.8
-70.729915 43.006923 -7.6
-70.725879 43.006929 -11.6
-70.726374 43.006937 -9.8
-70.725285 43.006946 -10.7
-70.727435 43.006951 -9.8
-70.727015 43.006965 -9.4
-70.727999 43.006984 -8.2
-70.728735 43.007009 -7.9
-70.729277 43.007048 -8.2
-70.731224 43.007051 -8.5
-70.730649 43.007057 -7.0
-70.731802 43.007059 -9.1
-70.732371 43.007093 -9.4
-70.723079 43.007321 -12.5
-70.722465 43.007334 -13.4
-70.723960 43.007334 -11.0
-70.718871 43.007362 -16.5
-70.721610 43.007362 -14.6
-70.725115 43.007368 -10.4
-70.729449 43.007368 -7.3
-70.721010 43.007373 -14.9
-70.724493 43.007373 -12.2
-70.720421 43.007390 -16.5
-70.719360 43.007393 -17.4
-70.719829 43.007401 -17.4
-70.726652 43.007404 -9.4
-70.726146 43.007412 -9.8
-70.730254 43.007412 -5.5
-70.728596 43.007418 -7.0
-70.727127 43.007421 -9.1
-70.725596 43.007423 -9.1
-70.728104 43.007426 -7.6
-70.729782 43.007437 -6.4
-70.731329 43.007448 -6.7
-70.727563 43.007451 -8.5
-70.731827 43.007459 -6.7
-70.730918 43.007462 -5.5
-70.732418 43.007462 -7.9
-70.716557 43.007582 -19.2
-70.718946 43.007598 -16.2
-70.718388 43.007604 -16.5
-70.721921 43.007604 -13.1
-70.717177 43.007607 -18.9
-70.717796 43.007609 -18.3
-70.721324 43.007629 -14.0
-70.720590 43.007634 -14.6
-70.719590 43.007637 -17.4
-70.722554 43.007651 -13.7
-70.723282 43.007662 -10.4
-70.724396 43.007665 -14.3
-70.723832 43.007671 -11.3
-70.724982 43.007679 -12.2
-70.726915 43.007684 -9.1
-70.727468 43.007684 -7.9
-70.725652 43.007687 -10.7
-70.729313 43.007696 -4.3
-70.726435 43.007698 -7.9
-70.728032 43.007698 -7.0
-70.728604 43.007707 -5.2
-70.730168 43.007709 -4.9
-70.730527 43.007709 -4.0
-70.731124 43.007715 -5.2
-70.732349 43.007746 -5.8
-70.731743 43.007765 -6.7
-70.728938 43.007865 -4.0
-70.728082 43.007987 -5.2
-70.731663 43.008026 -4.6
-70.732227 43.008029 -3.7
-70.726032 43.008037 -10.7
-70.731268 43.008051 -3.0
-70.730574 43.008059 -2.7
-70.730063 43.008079 -3.4
-70.729271 43.008093 -3.0
-70.728696 43.008098 -4.3
-70.729693 43.008115 -2.7
-70.731927 43.008212 -2.4
-70.727713 43.008265 -7.3
-70.731640 43.008268 -0.6
-70.727074 43.008287 -9.1
-70.725652 43.008301 -10.7
-70.730949 43.008379 -2.4
-70.728440 43.008398 -5.2
-70.720977 43.008426 -13.7
-70.721729 43.008437 -12.2
-70.719852 43.008443 -16.5
-70.717763 43.008454 -17.7
-70.720410 43.008454 -14.6
-70.717227 43.008462 -17.1
-70.724643 43.008462 -11.3
-70.716652 43.008468 -18.9
-70.719277 43.008468 -16.5
-70.723560 43.008471 -13.1
-70.718524 43.008482 -14.3
-70.724115 43.008490 -12.5
-70.722482 43.008493 -13.1
-70.723104 43.008496 -14.6
-70.726102 43.008518 -9.4
-70.726677 43.008526 -9.8
-70.728952 43.008568 -1.8
-70.729415 43.008598 -1.5
-70.727424 43.008607 -7.3
-70.725232 43.008609 -10.4
-70.729977 43.008618 -2.1
-70.730532 43.008648 -2.1
-70.728160 43.008671 -4.6
-70.732599 43.008682 -3.7
-70.732082 43.008701 -2.4
-70.730971 43.008721 -2.1
-70.731496 43.008784 -1.8
-70.727115 43.008834 -7.6
-70.727885 43.008923 -5.2
-70.730457 43.008934 -2.1
-70.724807 43.008993 -7.9
-70.729904 43.009034 -3.4
-70.731846 43.009065 -2.4
-70.727549 43.009168 -6.1
-70.731102 43.009168 -1.5
-70.731396 43.009171 -2.1
-70.730732 43.009176 -0.9
-70.716704 43.009187 -17.7
-70.726846 43.009187 -7.6
-70.729118 43.009190 -4.0
-70.717504 43.009196 -18.3
-70.728721 43.009221 -4.0
-70.718646 43.009229 -15.8
-70.719246 43.009229 -14.3
-70.729607 43.009229 -3.7
-70.718040 43.009237 -14.9
-70.719779 43.009240 -15.8
-70.727952 43.009246 -3.7
-70.720357 43.009257 -14.0
-70.720932 43.009273 -11.6
-70.721854 43.009279 -11.0
-70.723168 43.009298 -12.5
-70.723785 43.009298 -11.0
-70.722629 43.009312 -13.1
-70.724304 43.009312 -8.2
-70.725440 43.009326 -9.1
-70.732649 43.009326 -1.2
-70.726065 43.009348 -9.4
-70.724810 43.009362 -8.8
-70.728263 43.009407 -4.6
-70.730321 43.009412 -2.4
-70.732185 43.009415 -3.0
-70.729963 43.009421 -2.7
-70.727471 43.009423 -4.3
-70.731221 43.009429 -1.5
-70.729024 43.009432 -4.0
-70.731677 43.009432 -2.4
-70.730729 43.009437 -0.9
-70.726563 43.009462 -8.5
-70.716529 43.009487 -18.3
-70.725660 43.009673 -9.4
-70.726707 43.009673 -7.0
-70.728252 43.009684 -5.2
-70.729121 43.009684 -4.6
-70.728699 43.009687 -6.4
-70.730674 43.009696 -3.7
-70.729693 43.009698 -2.4
-70.727504 43.009701 -3.7
-70.730168 43.009707 -4.3
-70.731074 43.009709 -2.1
-70.725171 43.009712 -9.4
-70.731665 43.009723 -2.4
-70.732532 43.009729 -3.0
-70.724546 43.009737 -8.2
-70.727146 43.009757 -4.0
-70.723888 43.009762 -9.4
-70.726346 43.009779 -5.8
-70.729438 43.009784 -2.1
-70.727740 43.009868 -6.1
-70.721482 43.009879 -11.9
-70.720907 43.009884 -13.1
-70.716271 43.009915 -18.0
-70.716796 43.009918 -15.5
-70.722599 43.009959 -12.5
-70.717263 43.009965 -15.5
-70.718846 43.009979 -17.7
-70.718293 43.009984 -16.8
-70.717821 43.009990 -17.7
-70.719310 43.009990 -14.9
-70.723538 43.009993 -9.8
-70.722993 43.009996 -11.3
-70.729227 43.009996 -2.1
-70.727388 43.010015 -4.3
-70.729440 43.010015 -1.8
-70.719882 43.010018 -14.0
-70.730288 43.010034 -4.9
-70.724513 43.010048 -8.2
-70.721979 43.010059 -12.5
-70.726846 43.010062 -3.4
-70.720404 43.010079 -14.3
-70.724977 43.010082 -7.9
-70.725440 43.010096 -6.1
-70.724043 43.010098 -9.1
-70.725960 43.010101 -7.0
-70.728279 43.010115 -7.3
-70.728790 43.010115 -6.1
-70.727110 43.010126 -2.1
-70.727790 43.010140 -4.9
-70.729690 43.010168 -1.8
-70.726629 43.010254 -4.9
-70.723354 43.010257 -9.1
-70.729388 43.010257 -1.2
-70.730010 43.010279 -3.0
-70.730813 43.010282 -3.0
-70.730454 43.010290 -4.9
-70.717724 43.010298 -14.3
-70.731777 43.010307 -2.1
-70.716210 43.010326 -16.8
-70.732377 43.010332 -0.9
-70.721729 43.010351 -13.1
-70.731307 43.010357 -2.7
-70.716977 43.010365 -13.4
-70.720413 43.010365 -11.9
-70.718696 43.010371 -15.5
-70.721182 43.010379 -12.2
-70.719854 43.010387 -14.6
-70.726146 43.010387 -6.4
-70.719254 43.010398 -14.3
-70.725449 43.010398 -7.9
-70.727682 43.010426 -7.9
-70.727199 43.010432 -5.8
-70.728252 43.010432 -6.7
-70.726790 43.010446 -6.4
-70.729443 43.010490 -1.8
-70.725832 43.010509 -5.8
-70.718224 43.010546 -14.6
-70.724877 43.010557 -6.4
-70.724104 43.010573 -8.8
-70.722407 43.010601 -11.3
-70.723229 43.010609 -7.9
-70.721885 43.010646 -12.5
-70.730379 43.010659 -4.0
-70.730713 43.010662 -2.7
-70.729952 43.010671 -2.4
-70.731224 43.010682 -3.7
-70.729621 43.010690 -4.0
-70.729154 43.010698 -4.3
-70.716199 43.010704 -16.5
-70.726654 43.010726 -4.9
-70.728538 43.010729 -4.6
-70.717354 43.010746 -14.9
-70.716782 43.010748 -13.4
-70.727749 43.010776 -4.3
-70.717935 43.010782 -14.3
-70.724499 43.010787 -7.6
-70.719185 43.010793 -14.3
-70.720927 43.010807 -14.0
-70.725002 43.010809 -6.4
-70.720335 43.010818 -13.1
-70.725574 43.010826 -3.0
-70.719729 43.010829 -14.3
-70.718535 43.010832 -14.9
-70.727190 43.010854 -3.0
-70.721449 43.010857 -12.5
-70.723402 43.010862 -8.5
-70.723932 43.010868 -8.8
-70.721996 43.010879 -11.3
-70.726113 43.010882 -4.9
-70.722746 43.010887 -9.4
-70.728068 43.010893 -3.4
-70.730807 43.010904 -4.0
-70.729804 43.010926 -5.2
-70.730265 43.010934 -4.0
-70.728827 43.010937 -4.0
-70.729385 43.010937 -5.2
-70.731418 43.010948 -2.4
-70.732299 43.010965 -1.8
-70.728349 43.010976 -2.4
-70.727435 43.010998 -3.4
-70.726935 43.011009 -4.6
-70.731963 43.011021 -0.9
-70.732746 43.011065 -0.3
-70.726390 43.011076 -2.7
-70.724713 43.011087 -4.9
-70.721490 43.011090 -11.9
-70.725082 43.011090 -4.9
-70.719004 43.011101 -15.2
-70.725590 43.011101 -5.5
-70.720902 43.011115 -12.8
-70.718377 43.011123 -16.2
-70.716918 43.011129 -14.0
-70.724049 43.011129 -8.2
-70.717599 43.011134 -14.6
-70.720315 43.011140 -14.3
-70.725924 43.011140 -3.4
-70.719871 43.011165 -12.8
-70.723252 43.011168 -7.9
-70.722585 43.011204 -10.7
-70.728727 43.011223 -3.4
-70.730704 43.011234 -4.9
-70.728996 43.011237 -5.2
-70.730338 43.011237 -4.6
-70.729910 43.011246 -4.9
-70.729482 43.011257 -5.2
-70.722060 43.011296 -10.4
-70.727804 43.011309 -1.2
-70.727213 43.011351 -2.4
-70.716263 43.011365 -17.1
-70.716754 43.011376 -15.2
-70.717274 43.011379 -17.1
-70.726882 43.011382 -2.7
-70.726446 43.011384 -4.0
-70.726063 43.011396 -2.4
-70.717957 43.011398 -15.2
-70.718482 43.011418 -16.5
-70.718963 43.011423 -15.5
-70.725438 43.011434 -3.0
-70.725727 43.011440 -1.8
-70.719404 43.011446 -15.5
-70.719954 43.011482 -14.6
-70.720868 43.011521 -12.2
-70.723243 43.011521 -6.7
-70.724329 43.011540 -6.4
-70.721471 43.011543 -11.0
-70.724899 43.011543 -3.7
-70.722054 43.011546 -10.4
-70.722643 43.011565 -9.8
-70.726707 43.011598 -6.4
-70.726257 43.011601 -5.2
-70.727196 43.011618 -3.7
-70.725263 43.011726 -2.1
-70.724715 43.011757 -2.1
-70.732254 43.011790 -1.5
-70.731377 43.011793 -2.4
-70.729279 43.011796 -6.1
-70.730904 43.011796 -3.7
-70.730074 43.011798 -4.0
-70.732693 43.011798 -3.7
-70.722482 43.011807 -10.4
-70.728846 43.011807 -5.2
-70.730504 43.011807 -5.2
-70.731829 43.011809 -1.2
-70.729704 43.011815 -5.5
-70.728535 43.011818 -4.9
-70.721493 43.011821 -12.5
-70.725699 43.011865 -6.4
-70.726621 43.011876 -5.5
-70.726204 43.011882 -7.9
-70.724979 43.011901 -2.7
-70.723465 43.011926 -8.8
-70.723927 43.011934 -7.3
-70.724513 43.011968 -4.3
-70.723013 43.011973 -9.8
-70.722088 43.011990 -7.3
-70.720657 43.012171 -11.0
-70.726396 43.012187 -8.2
-70.726982 43.012193 -7.3
-70.727607 43.012193 -6.4
-70.717343 43.012201 -15.5
-70.725774 43.012212 -9.4
-70.716332 43.012223 -14.3
-70.728099 43.012234 -5.2
-70.716849 43.012240 -14.3
-70.723674 43.012240 -7.3
-70.728610 43.012243 -5.2
-70.729024 43.012243 -5.8
-70.717804 43.012248 -17.7
-70.724104 43.012259 -4.0
-70.725143 43.012268 -5.2
-70.729515 43.012268 -6.7
-70.730332 43.012271 -4.0
-70.724585 43.012273 -5.8
-70.723171 43.012279 -8.8
-70.722196 43.012287 -11.3
-70.718429 43.012309 -12.8
-70.722729 43.012309 -9.4
-70.719018 43.012312 -14.0
-70.719568 43.012318 -11.6
-70.721746 43.012321 -10.4
-70.720985 43.012332 -11.9
-70.720260 43.012351 -13.4
-70.726107 43.012523 -9.4
-70.725632 43.012529 -9.8
-70.723877 43.012540 -5.2
-70.724593 43.012540 -5.8
-70.722327 43.012559 -12.5
-70.723440 43.012571 -7.0
-70.725071 43.012576 -8.5
-70.722885 43.012584 -9.1
-70.720379 43.012590 -16.2
-70.721732 43.012626 -13.1
-70.721290 43.012651 -12.8
-70.723924 43.012718 -4.3
-70.719877 43.012737 -16.8
-70.718604 43.012876 -15.8
-70.717599 43.012896 -17.4
-70.716427 43.012898 -15.2
-70.716990 43.012909 -17.7
-70.720699 43.012926 -16.2
-70.721343 43.012954 -15.2
-70.730963 43.012954 -4.9
-70.728857 43.012962 -7.0
-70.729885 43.012965 -4.0
-70.727874 43.012968 -7.9
-70.728349 43.012968 -7.6
-70.730371 43.012976 -3.7
-70.727324 43.012979 -8.5
-70.719274 43.012982 -17.4
-70.729454 43.012996 -5.5
-70.731810 43.012996 -4.9
-70.725499 43.012998 -9.8
-70.731343 43.012998 -5.2
-70.722046 43.013001 -14.3
-70.724227 43.013001 -8.2
-70.732677 43.013007 -3.0
-70.723065 43.013009 -7.6
-70.723540 43.013009 -6.7
-70.726652 43.013012 -8.8
-70.724871 43.013018 -10.4
-70.722521 43.013026 -13.1
-70.732235 43.013029 -2.4
-70.718707 43.013187 -17.4
-70.720079 43.013190 -16.5
-70.726115 43.013190 -9.1
-70.725218 43.013218 -10.1
-70.724446 43.013254 -11.6
-70.723479 43.013287 -12.8
-70.718260 43.013290 -15.2
-70.722929 43.013307 -13.1
-70.721718 43.013326 -15.5
-70.723882 43.013337 -12.5
-70.721171 43.013351 -16.2
-70.720646 43.013362 -16.5
-70.722435 43.013387 -13.7
-70.729657 43.013393 -2.4
-70.717804 43.013440 -15.5
-70.732152 43.013498 -3.0
-70.731732 43.013512 -4.9
-70.731190 43.013546 -5.8
-70.730732 43.013579 -4.6
-70.717285 43.013609 -13.1
-70.730252 43.013621 -4.0
-70.729890 43.013640 -5.2
-70.724096 43.013654 -11.3
-70.729440 43.013662 -6.4
-70.728988 43.013665 -6.7
-70.719196 43.013668 -14.9
-70.722427 43.013676 -12.2
-70.721840 43.013679 -13.1
-70.726852 43.013682 -8.5
-70.726360 43.013684 -8.5
-70.724760 43.013687 -10.4
-70.725302 43.013687 -9.8
-70.725765 43.013687 -8.2
-70.728427 43.013687 -7.0
-70.723121 43.013690 -12.8
-70.727921 43.013698 -7.3
-70.721285 43.013701 -14.6
-70.720093 43.013704 -16.5
-70.718268 43.013712 -13.4
-70.720760 43.013712 -13.7
-70.727446 43.013718 -7.6
-70.723677 43.013734 -12.5
-70.716649 43.013821 -13.4
-70.731371 43.013904 -4.9
-70.731013 43.013918 -4.3
-70.730468 43.013957 -6.1
-70.719452 43.013962 -14.3
-70.723238 43.013965 -11.6
-70.729965 43.013987 -6.7
-70.729510 43.013998 -6.4
-70.729054 43.014026 -7.0
-70.728577 43.014029 -6.4
-70.728032 43.014032 -7.0
-70.727574 43.014040 -7.3
-70.727088 43.014051 -7.9
-70.726063 43.014054 -8.8
-70.726607 43.014071 -8.5
-70.725563 43.014079 -9.8
-70.724160 43.014090 -10.7
-70.724632 43.014101 -9.4
-70.725085 43.014104 -10.1
-70.721210 43.014118 -11.3
-70.722079 43.014118 -10.1
-70.720757 43.014123 -14.6
-70.722718 43.014132 -11.6
-70.723665 43.014209 -11.3
-70.731621 43.014307 -3.7
-70.716538 43.014309 -13.4
-70.717235 43.014312 -13.4
-70.717968 43.014326 -12.2
-70.729693 43.014337 -6.4
-70.730146 43.014340 -7.6
-70.731138 43.014340 -4.0
-70.730577 43.014343 -7.0
-70.719393 43.014365 -14.6
-70.719888 43.014379 -12.8
-70.725482 43.014387 -9.8
-70.727982 43.014387 -6.4
-70.728515 43.014390 -6.1
-70.729232 43.014390 -5.2
-70.726749 43.014396 -7.9
-70.724896 43.014401 -10.4
-70.721699 43.014404 -11.3
-70.722304 43.014404 -10.7
-70.726082 43.014407 -8.8
-70.723063 43.014412 -11.0
-70.727388 43.014415 -7.3
-70.720490 43.014418 -13.4
-70.721118 43.014421 -12.5
-70.723999 43.014471 -8.8
-70.718671 43.014565 -13.7
-70.724435 43.014721 -11.3
-70.724796 43.014962 -10.4
-70.721177 43.015015 -12.2
-70.718510 43.015029 -13.7
-70.720004 43.015029 -12.2
-70.721674 43.015032 -11.3
-70.717368 43.015034 -13.7
-70.720624 43.015034 -13.4
-70.716727 43.015037 -14.0
-70.719477 43.015048 -13.7
-70.716165 43.015051 -14.6
-70.722190 43.015054 -11.6
-70.722743 43.015073 -13.7
-70.723696 43.015082 -11.9
-70.726549 43.015084 -8.2
-70.727052 43.015084 -7.6
-70.729235 43.015084 -6.7
-70.731140 43.015084 -4.6
-70.728682 43.015090 -7.3
-70.729971 43.015096 -6.1
-70.728057 43.015098 -6.7
-70.730640 43.015098 -5.5
-70.724365 43.015101 -11.0
-70.723238 43.015112 -12.5
-70.725488 43.015115 -9.8
-70.726071 43.015121 -8.8
-70.731577 43.015123 -2.7
-70.725113 43.015265 -9.8
-70.727457 43.015268 -7.3
-70.717868 43.015429 -12.8
-70.727015 43.015454 -7.6
-70.726410 43.015484 -7.9
-70.725504 43.015490 -9.1
-70.716335 43.015762 -15.2
-70.717099 43.015768 -12.5
-70.718193 43.015776 -13.7
-70.725132 43.015782 -9.8
-70.725790 43.015784 -8.5
-70.726346 43.015787 -7.3
-70.726954 43.015801 -7.0
-70.723293 43.015807 -11.9
-70.719929 43.015809 -11.9
-70.722715 43.015812 -10.7
-70.720757 43.015815 -11.6
-70.729977 43.015815 -2.4
-70.723935 43.015818 -11.0
-70.718865 43.015823 -12.8
-70.724479 43.015826 -10.1
-70.728060 43.015829 -6.7
-70.722038 43.015832 -13.1
-70.729013 43.015832 -6.7
-70.727388 43.015837 -6.4
-70.721371 43.015846 -13.1
-70.730385 43.015846 -2.7
-70.728582 43.015848 -6.1
-70.729574 43.015868 -4.3
-70.717304 43.016021 -15.2
-70.726365 43.016051 -6.4
-70.727324 43.016076 -5.2
-70.728343 43.016282 -6.4
-70.729282 43.016323 -4.3
-70.727804 43.016326 -7.6
-70.728835 43.016337 -5.2
-70.725432 43.016348 -7.0
-70.726921 43.016348 -4.3
-70.727277 43.016348 -7.3
-70.726054 43.016357 -3.4
-70.724363 43.016373 -10.1
-70.724952 43.016387 -7.3
-70.726415 43.016401 -4.3
-70.716421 43.016509 -15.2
-70.717138 43.016512 -15.2
-70.719246 43.016523 -13.1
-70.717652 43.016532 -12.5
-70.718407 43.016559 -13.7
-70.720543 43.016573 -13.7
-70.719982 43.016579 -14.3
-70.725265 43.016579 -6.1
-70.723871 43.016582 -10.1
-70.721093 43.016584 -13.1
-70.722838 43.016598 -11.0
-70.721693 43.016601 -12.5
-70.726246 43.016601 -4.9
-70.730004 43.016612 -3.7
-70.726668 43.016615 -5.8
-70.729046 43.016621 -5.2
-70.730385 43.016623 -3.4
-70.728040 43.016626 -7.6
-70.728504 43.016626 -6.7
-70.729513 43.016626 -5.5
-70.727271 43.016632 -7.9
-70.722071 43.016704 -11.9
-70.745757 43.000098 -1.2
-70.746221 43.000115 -1.2
-70.748279 43.000134 -1.8
-70.746843 43.000148 -1.5
-70.744757 43.000151 -0.9
-70.745363 43.000179 -0.6
-70.748632 43.000198 -1.8
-70.746515 43.000237 -1.5
-70.744963 43.000254 -0.3
-70.746049 43.000273 -1.5
-70.736849 43.000368 -7.0
-70.749002 43.000371 -1.8
-70.740763 43.000376 -0.6
-70.745654 43.000387 -0.2
-70.736282 43.000404 -7.3
-70.737604 43.000404 -3.7
-70.735374 43.000421 -7.0
-70.738104 43.000421 -4.3
-70.734793 43.000426 -6.1
-70.739704 43.000426 -3.0
-70.739199 43.000437 -4.6
-70.738685 43.000443 -5.5
-70.746824 43.000443 -1.5
-70.745879 43.000446 0.3
-70.739985 43.000448 -2.7
-70.745424 43.000451 -0.6
-70.741013 43.000471 -1.5
-70.741488 43.000473 -0.3
-70.749377 43.000493 -0.9
-70.746388 43.000632 -1.5
-70.748407 43.000654 -1.8
-70.735268 43.000671 -5.8
-70.735952 43.000671 -7.3
-70.733171 43.000687 -10.1
-70.745982 43.000693 0.6
-70.736538 43.000698 -7.3
-70.734410 43.000704 -6.7
-70.737149 43.000709 -7.0
-70.738915 43.000721 -4.0
-70.747577 43.000721 -1.5
-70.733763 43.000726 -9.1
-70.738338 43.000734 -5.5
-70.737743 43.000743 -4.6
-70.746765 43.000746 -1.5
-70.739740 43.000748 -4.0
-70.739379 43.000751 -4.3
-70.740204 43.000762 -2.7
-70.740554 43.000782 -1.8
-70.740935 43.000782 -1.5
-70.748815 43.000809 -1.5
-70.747127 43.000871 -1.5
-70.747893 43.000873 -1.5
-70.746560 43.000904 -1.2
-70.749227 43.000940 -1.5
-70.747490 43.001001 -1.5
-70.748271 43.001023 -1.5
-70.746888 43.001034 -1.5
-70.748607 43.001123 -1.5
-70.747871 43.001165 -1.5
-70.735468 43.001196 -5.5
-70.733327 43.001201 -8.5
-70.747177 43.001209 -1.5
-70.733777 43.001212 -9.1
-70.734793 43.001232 -7.9
-70.734182 43.001240 -8.2
-70.748985 43.001279 -1.5
-70.736990 43.001282 -5.8
-70.736088 43.001293 -5.2
-70.736571 43.001304 -5.5
-70.748235 43.001307 -1.5
-70.737468 43.001329 -6.1
-70.738504 43.001354 -3.7
-70.737999 43.001362 -4.6
-70.739052 43.001376 -3.4
-70.747515 43.001376 -1.5
-70.749363 43.001376 -1.2
-70.740852 43.001387 -1.2
-70.739515 43.001401 -4.3
-70.739954 43.001404 -4.0
-70.740385 43.001426 -1.8
-70.748610 43.001443 -1.2
-70.733182 43.001479 -8.2
-70.748946 43.001546 0.3
-70.747835 43.001554 -0.6
-70.749285 43.001668 0.3
-70.748235 43.001734 -0.3
-70.733671 43.001762 -7.6
-70.748565 43.001907 0.3
-70.740113 43.002046 -2.7
-70.740885 43.002073 -1.8
-70.735365 43.002076 -6.4
-70.739307 43.002076 -5.2
-70.733149 43.002082 -7.0
-70.738496 43.002082 -3.7
-70.737546 43.002084 -4.6
-70.734838 43.002087 -7.3
-70.736771 43.002087 -5.2
-70.740602 43.002087 -1.5
-70.734093 43.002090 -8.5
-70.739738 43.002093 -4.0
-70.735932 43.002098 -7.0
-70.738124 43.002112 -4.9
-70.734429 43.002351 -7.6
-70.733115 43.002679 -9.8
-70.733760 43.002679 -9.1
-70.734257 43.002679 -7.6
-70.734965 43.002698 -7.9
-70.742557 43.002698 -1.2
-70.736471 43.002701 -6.4
-70.735454 43.002704 -7.9
-70.737113 43.002707 -5.8
-70.738129 43.002715 -4.3
-70.741935 43.002715 -2.1
-70.740929 43.002718 -3.0
-70.738571 43.002721 -5.2
-70.740396 43.002723 -4.0
-70.741304 43.002726 -2.4
-70.735999 43.002729 -6.7
-70.739974 43.002732 -5.2
-70.737615 43.002734 -5.2
-70.739527 43.002734 -4.6
-70.739040 43.002746 -3.7
-70.735304 43.003057 -6.7
-70.742971 43.003376 -0.9
-70.742621 43.003382 -1.2
-70.734782 43.003384 -7.9
-70.739188 43.003384 -4.6
-70.741024 43.003384 -3.0
-70.738271 43.003387 -4.6
-70.741402 43.003390 -2.4
-70.739643 43.003393 -5.8
-70.742224 43.003396 -1.8
-70.740065 43.003398 -5.5
-70.737827 43.003401 -4.6
-70.740571 43.003401 -4.3
-70.736721 43.003404 -6.1
-70.737338 43.003407 -5.2
-70.738768 43.003407 -4.9
-70.735340 43.003412 -6.7
-70.733524 43.003415 -10.1
-70.734196 43.003429 -8.8
-70.735977 43.003432 -6.7
-70.741815 43.003432 -2.4
-70.732990 43.003440 -10.4
-70.736232 43.003762 -7.0
-70.736652 43.004004 -6.4
-70.743029 43.004109 -0.9
-70.742590 43.004121 -1.2
-70.740840 43.004146 -4.0
-70.742177 43.004159 -1.8
-70.739963 43.004162 -5.8
-70.741743 43.004171 -2.4
-70.741349 43.004173 -3.0
-70.740490 43.004179 -4.6
-70.739460 43.004190 -6.4
-70.736204 43.004196 -5.5
-70.737815 43.004198 -5.2
-70.739140 43.004201 -4.6
-70.738713 43.004204 -4.3
-70.737302 43.004215 -5.5
-70.733727 43.004218 -9.8
-70.734965 43.004226 -8.8
-70.735760 43.004229 -4.3
-70.733118 43.004232 -10.1
-70.734363 43.004240 -9.1
-70.736890 43.004301 -6.1
-70.737354 43.004629 -5.8
-70.737771 43.004904 -5.2
-70.739679 43.004915 -4.0
-70.740499 43.004915 -4.3
-70.738513 43.004921 -5.2
-70.738096 43.004923 -4.6
-70.739115 43.004926 -4.6
-70.741015 43.004929 -3.4
-70.736743 43.004946 -7.0
-70.737340 43.004948 -6.1
-70.736185 43.004962 -7.9
-70.741452 43.004962 -3.0
-70.733871 43.004979 -9.4
-70.735099 43.004982 -8.5
-70.734535 43.004984 -8.8
-70.733354 43.004987 -9.8
-70.741965 43.004993 -2.1
-70.735604 43.005001 -8.2
-70.743115 43.005012 -0.9
-70.742638 43.005021 -1.5
-70.742263 43.005034 -1.5
-70.738177 43.005251 -5.8
-70.735177 43.005379 -7.6
-70.738574 43.005546 -4.9
-70.740029 43.005704 -4.9
-70.740938 43.005729 -3.7
-70.741932 43.005737 -2.7
-70.739527 43.005740 -5.5
-70.740540 43.005743 -4.3
-70.737896 43.005748 -6.7
-70.741435 43.005748 -3.4
-70.742396 43.005762 -2.1
-70.742768 43.005768 -1.5
-70.737393 43.005771 -7.3
-70.743140 43.005773 -1.2
-70.734585 43.005796 -8.8
-70.736310 43.005796 -7.6
-70.736799 43.005796 -7.3
-70.733990 43.005798 -9.4
-70.735752 43.005801 -7.9
-70.732857 43.005804 -10.1
-70.733382 43.005815 -9.8
-70.735154 43.005815 -8.5
-70.738752 43.005821 -6.4
-70.739268 43.006051 -5.5
-70.735252 43.006176 -7.9
-70.736196 43.006179 -7.6
-70.732938 43.006187 -9.8
-70.737096 43.006187 -7.0
-70.738204 43.006187 -6.4
-70.734674 43.006193 -8.5
-70.733468 43.006198 -9.4
-70.734127 43.006207 -9.1
-70.738796 43.006209 -5.8
-70.737674 43.006215 -6.7
-70.740338 43.006259 -3.7
-70.740882 43.006259 -3.0
-70.739888 43.006273 -4.3
-70.741379 43.006296 -2.7
-70.739518 43.006307 -4.9
-70.741849 43.006326 -2.1
-70.742196 43.006359 -1.8
-70.743060 43.006359 -1.2
-70.742632 43.006368 -1.2
-70.739857 43.006529 -4.6
-70.733029 43.006696 -8.5
-70.740143 43.006776 -3.7
-70.740502 43.006996 -3.4
-70.733568 43.007082 -8.5
-70.732929 43.007093 -9.1
-70.734035 43.007123 -8.5
-70.735057 43.007173 -7.9
-70.737760 43.007198 -6.4
-70.740427 43.007218 -3.0
-70.735604 43.007221 -7.6
-70.738349 43.007221 -5.8
-70.737215 43.007226 -7.0
-70.738824 43.007226 -5.2
-70.739904 43.007237 -3.7
-70.736143 43.007251 -7.6
-70.739418 43.007251 -4.6
-70.740949 43.007257 -2.1
-70.736696 43.007265 -7.3
-70.734549 43.007287 -7.6
-70.741388 43.007323 -1.8
-70.741829 43.007348 -1.5
-70.733354 43.007354 -8.2
-70.742446 43.007415 -0.9
-70.743029 43.007429 0.3
-70.734054 43.007434 -7.3
-70.732971 43.007468 -7.6
-70.733452 43.007671 -7.0
-70.732907 43.007723 -5.8
-70.734485 43.007762 -7.9
-70.737049 43.007926 -7.6
-70.737640 43.007940 -7.0
-70.736440 43.007943 -7.9
-70.738349 43.007962 -5.2
-70.739507 43.007962 -3.7
-70.738918 43.007968 -4.3
-70.735232 43.007971 -7.6
-70.735785 43.007971 -7.9
-70.740079 43.007976 -2.7
-70.740638 43.007987 -2.1
-70.734777 43.008004 -7.6
-70.733404 43.008009 -5.2
-70.734252 43.008012 -6.4
-70.733813 43.008021 -6.1
-70.741190 43.008023 -1.5
-70.742657 43.008029 -0.3
-70.742218 43.008032 -0.6
-70.741718 43.008037 -1.2
-70.732915 43.008046 -3.0
-70.733135 43.008693 -5.5
-70.733688 43.008723 -5.2
-70.734785 43.008734 -6.4
-70.734238 43.008754 -5.2
-70.735738 43.008757 -6.7
-70.736190 43.008762 -6.1
-70.735268 43.008768 -7.0
-70.736765 43.008787 -5.8
-70.737302 43.008812 -3.7
-70.738274 43.008846 -3.7
-70.737824 43.008848 -4.9
-70.739357 43.008868 -1.8
-70.738765 43.008876 -3.0
-70.739846 43.008887 -0.6
-70.734885 43.009168 -5.2
-70.733982 43.009171 -4.6
-70.736207 43.009171 -4.6
-70.734460 43.009179 -4.6
-70.735782 43.009193 -4.0
-70.735415 43.009198 -3.0
-70.733221 43.009237 -1.8
-70.732952 43.009279 -0.6
-70.733693 43.009432 -4.6
-70.734277 43.009440 -3.7
-70.734818 43.009440 -2.7
-70.736924 43.009448 -1.8
-70.736360 43.009457 -3.7
-70.735854 43.009459 -4.3
-70.737474 43.009465 -1.8
-70.735318 43.009476 -2.7
-70.737946 43.009498 -2.1
-70.738449 43.009512 -1.8
-70.738854 43.009512 -1.5
-70.739663 43.009518 -1.2
-70.739268 43.009534 -1.2
-70.735840 43.009723 -1.5
-70.736152 43.009734 -1.8
-70.732899 43.009737 -3.4
-70.733293 43.009740 -3.7
-70.734079 43.009746 -3.7
-70.734574 43.009762 -2.1
-70.735377 43.009765 -3.0
-70.733743 43.009782 -2.7
-70.734946 43.009790 -2.7
-70.733279 43.010029 -0.3
-70.732868 43.010365 -1.8
-70.733624 43.010412 -1.8
-70.733315 43.010423 -2.7
-70.734313 43.010457 -1.8
-70.734740 43.010482 -1.5
-70.735118 43.010518 -1.2
-70.733627 43.010976 -1.5
-70.733971 43.010998 -3.4
-70.734307 43.011023 -2.7
-70.733102 43.011793 -2.4
-70.749713 43.000579 0.0
-70.750115 43.000704 1.2
-70.749618 43.001096 -1.2
-70.750010 43.001182 -0.6
-70.750332 43.001337 -0.3
-70.750665 43.001459 -0.3
-70.749807 43.001551 -0.9
-70.750946 43.001584 -0.3
-70.750188 43.001698 -0.6
-70.751296 43.001701 -0.2
-70.750529 43.001862 0.0
-70.750960 43.001984 -0.3
-70.698793 43.018629 -21.6
-70.699402 43.019343 -18.3
-70.698996 43.019612 -19.2
-70.698379 43.019759 -18.3
-70.696349 43.019965 -19.8
-70.696935 43.019990 -19.5
-70.697582 43.020029 -20.1
-70.698327 43.020037 -18.0
-70.699171 43.020040 -17.4
-70.697154 43.020243 -20.4
-70.696638 43.020393 -19.8
-70.696143 43.020568 -20.1
-70.695557 43.020804 -19.8
-70.699321 43.020862 -15.2
-70.698049 43.020882 -17.7
-70.697013 43.020901 -17.4
-70.699310 43.021143 -16.2
-70.698424 43.021148 -18.3
-70.697365 43.021171 -19.5
-70.696743 43.021173 -16.8
-70.695843 43.021493 -19.8
-70.698224 43.021501 -17.1
-70.697560 43.021507 -18.3
-70.696438 43.021515 -18.6
-70.698913 43.021523 -16.8
-70.696988 43.021543 -17.7
-70.699474 43.021896 -15.8
-70.698971 43.021915 -18.0
-70.697627 43.021984 -17.4
-70.698377 43.021993 -17.4
-70.696443 43.022204 -19.2
-70.697685 43.022234 -17.4
-70.698588 43.022243 -16.5
-70.697065 43.022271 -17.7
-70.698877 43.022484 -18.0
-70.699446 43.022484 -15.2
-70.698132 43.022509 -17.7
-70.697257 43.022546 -18.9
-70.692765 43.022940 -17.4
-70.693260 43.022979 -16.2
-70.693829 43.023009 -17.7
-70.695643 43.023048 -18.9
-70.694810 43.023051 -19.5
-70.694327 43.023054 -18.6
-70.696499 43.023054 -18.0
-70.697096 43.023071 -15.5
-70.699263 43.023084 -14.0
-70.698293 43.023118 -14.3
-70.697690 43.023212 -17.7
-70.695218 43.023426 -19.2
-70.698365 43.023454 -17.7
-70.699182 43.023454 -13.4
-70.696957 43.023468 -15.5
-70.697415 43.023471 -18.0
-70.696524 43.023490 -17.4
-70.695993 43.023515 -20.1
-70.694093 43.023665 -18.9
-70.695249 43.023698 -19.2
-70.694646 43.023701 -17.1
-70.696343 43.023718 -18.3
-70.698615 43.023729 -15.2
-70.698038 43.023748 -18.3
-70.696932 43.023757 -14.9
-70.699185 43.023768 -12.5
-70.697538 43.023784 -16.5
-70.696021 43.023971 -20.4
-70.696732 43.024001 -17.7
-70.697457 43.024084 -16.2
-70.697910 43.024104 -18.6
-70.698618 43.024109 -15.2
-70.699327 43.024162 -13.1
-70.696549 43.024315 -20.4
-70.697490 43.024479 -16.2
-70.698674 43.024484 -14.3
-70.696118 43.024507 -19.2
-70.691513 43.024515 -20.1
-70.699446 43.024526 -13.4
-70.695560 43.024529 -20.4
-70.695032 43.024534 -16.8
-70.692868 43.024540 -17.4
-70.692140 43.024543 -19.8
-70.693332 43.024548 -19.2
-70.693865 43.024548 -18.6
-70.694510 43.024557 -17.7
-70.698015 43.024565 -18.9
-70.696882 43.024715 -18.9
-70.698410 43.024768 -16.8
-70.699060 43.024796 -17.1
-70.697621 43.024809 -19.5
-70.694357 43.025034 -19.2
-70.693240 43.025037 -19.5
-70.693765 43.025040 -16.8
-70.695018 43.025040 -18.6
-70.695502 43.025062 -17.4
-70.696427 43.025093 -17.7
-70.697165 43.025104 -17.7
-70.698293 43.025107 -19.8
-70.697752 43.025109 -19.8
-70.699393 43.025112 -15.5
-70.698907 43.025132 -15.2
-70.697829 43.025443 -19.5
-70.699302 43.025512 -17.7
-70.698960 43.025793 -18.9
-70.692129 43.025801 -21.0
-70.689965 43.025812 -20.7
-70.691588 43.025821 -21.6
-70.698196 43.025832 -15.5
-70.694310 43.025834 -20.1
-70.696085 43.025837 -14.9
-70.695102 43.025840 -18.6
-70.690482 43.025843 -20.1
-70.691035 43.025843 -19.5
-70.692968 43.025854 -20.1
-70.693732 43.025857 -20.7
-70.697593 43.025859 -16.5
-70.697052 43.025893 -16.5
-70.698663 43.026040 -19.2
-70.699390 43.026082 -18.9
-70.697299 43.026157 -14.9
-70.695479 43.026159 -18.0
-70.697821 43.026162 -14.6
-70.694249 43.026165 -20.1
-70.696804 43.026165 -18.3
-70.694885 43.026179 -18.9
-70.696068 43.026196 -14.6
-70.698993 43.026257 -17.4
-70.698304 43.026390 -13.4
-70.692460 43.026471 -19.5
-70.693424 43.026473 -16.8
-70.691027 43.026487 -21.3
-70.694240 43.026504 -19.8
-70.694796 43.026504 -21.0
-70.691629 43.026507 -21.6
-70.695402 43.026521 -19.8
-70.696171 43.026546 -17.7
-70.696793 43.026573 -18.3
-70.699410 43.026584 -18.3
-70.697993 43.026587 -13.4
-70.698674 43.026596 -15.5
-70.697371 43.026607 -16.5
-70.697013 43.026951 -16.2
-70.695327 43.026957 -20.4
-70.698879 43.026965 -18.0
-70.695854 43.026984 -19.8
-70.698390 43.026987 -17.7
-70.696396 43.026990 -19.5
-70.697477 43.027029 -16.8
-70.697090 43.027246 -18.0
-70.699293 43.027262 -17.4
-70.690854 43.027332 -21.3
-70.692885 43.027343 -21.0
-70.693413 43.027343 -21.0
-70.693988 43.027346 -20.4
-70.688838 43.027354 -21.3
-70.689388 43.027357 -21.9
-70.691407 43.027359 -21.3
-70.690302 43.027376 -19.2
-70.692154 43.027379 -20.1
-70.697735 43.027379 -16.5
-70.694546 43.027384 -19.2
-70.696143 43.027423 -17.4
-70.695449 43.027429 -18.0
-70.698813 43.027454 -15.8
-70.696727 43.027582 -15.8
-70.697479 43.027659 -14.9
-70.698204 43.027732 -17.4
-70.698668 43.027771 -15.5
-70.699115 43.027798 -16.2
-70.696599 43.027937 -14.9
-70.694113 43.027979 -19.2
-70.697429 43.027987 -15.8
-70.692932 43.027998 -20.4
-70.691979 43.028015 -18.3
-70.693485 43.028018 -18.9
-70.696049 43.028018 -15.8
-70.694963 43.028037 -18.6
-70.695515 43.028043 -18.0
-70.691449 43.028057 -17.4
-70.689663 43.028107 -21.6
-70.690135 43.028107 -21.3
-70.697882 43.028109 -18.0
-70.690718 43.028115 -20.7
-70.696738 43.028182 -14.0
-70.699318 43.028232 -17.7
-70.696288 43.028265 -14.3
-70.698729 43.028290 -16.5
-70.694052 43.028382 -19.5
-70.694693 43.028390 -18.6
-70.698354 43.028404 -17.1
-70.697924 43.028415 -17.4
-70.696721 43.028434 -15.2
-70.697235 43.028434 -18.3
-70.695468 43.028471 -16.8
-70.694924 43.028679 -18.3
-70.691796 43.028773 -19.8
-70.693838 43.028776 -19.2
-70.697496 43.028779 -17.4
-70.696435 43.028784 -15.8
-70.695371 43.028787 -17.4
-70.696949 43.028798 -16.5
-70.693249 43.028801 -19.2
-70.692790 43.028804 -19.5
-70.691127 43.028815 -20.1
-70.690474 43.028826 -20.7
-70.698554 43.028829 -14.6
-70.688104 43.028846 -19.2
-70.689235 43.028848 -19.8
-70.689732 43.028851 -21.0
-70.688802 43.028868 -21.6
-70.687449 43.028871 -18.3
-70.694302 43.028890 -18.6
-70.699143 43.028982 -17.4
-70.696599 43.028990 -17.4
-70.698127 43.028996 -17.1
-70.695521 43.029007 -18.3
-70.695007 43.029012 -18.3
-70.696049 43.029015 -17.7
-70.693760 43.029076 -18.6
-70.693235 43.029184 -18.6
-70.692065 43.029507 -18.9
-70.687854 43.029526 -21.0
-70.692868 43.029551 -18.9
-70.693543 43.029579 -18.6
-70.694657 43.029596 -17.7
-70.694071 43.029601 -18.3
-70.695260 43.029601 -17.7
-70.689157 43.029607 -20.4
-70.696357 43.029607 -16.8
-70.698252 43.029607 -16.5
-70.695849 43.029612 -17.4
-70.696927 43.029618 -16.5
-70.689790 43.029621 -20.4
-70.698807 43.029621 -16.2
-70.697579 43.029623 -16.5
-70.690382 43.029648 -19.8
-70.699335 43.029657 -16.2
-70.691035 43.029668 -19.5
-70.691513 43.029734 -19.2
-70.690993 43.029926 -19.2
-70.688746 43.030065 -20.7
-70.690404 43.030090 -19.5
-70.689196 43.030371 -20.4
-70.688340 43.030384 -21.0
-70.690104 43.030421 -19.8
-70.690665 43.030429 -19.5
-70.699090 43.030437 -15.5
-70.691288 43.030443 -18.9
-70.694854 43.030451 -17.4
-70.693052 43.030457 -18.0
-70.695990 43.030457 -16.5
-70.694227 43.030459 -17.7
-70.691954 43.030462 -18.6
-70.695429 43.030471 -16.8
-70.698446 43.030471 -15.8
-70.693657 43.030473 -18.3
-70.697196 43.030476 -15.8
-70.692540 43.030482 -18.6
-70.696627 43.030493 -16.5
-70.697779 43.030493 -15.8
-70.689577 43.030648 -20.4
-70.688135 43.030712 -21.0
-70.687615 43.030821 -21.6
-70.690088 43.030959 -19.8
-70.699038 43.031059 -15.5
-70.699452 43.031062 -15.2
-70.698557 43.031109 -15.5
-70.697377 43.031121 -15.8
-70.697946 43.031137 -15.8
-70.696363 43.031165 -16.2
-70.696868 43.031173 -16.2
-70.694652 43.031212 -17.1
-70.695196 43.031221 -16.8
-70.694124 43.031232 -17.1
-70.695899 43.031237 -16.5
-70.686615 43.031254 -22.3
-70.692999 43.031259 -17.7
-70.693579 43.031273 -17.4
-70.687135 43.031279 -21.9
-70.691332 43.031287 -18.6
-70.691979 43.031304 -18.3
-70.689702 43.031309 -19.8
-70.690427 43.031312 -19.5
-70.687627 43.031323 -21.3
-70.688099 43.031323 -21.0
-70.688629 43.031368 -20.7
-70.689204 43.031371 -20.1
-70.690818 43.031571 -19.2
-70.692104 43.031965 -18.0
-70.692665 43.031976 -17.7
-70.688107 43.031979 -20.7
-70.687432 43.031982 -21.0
-70.688729 43.032004 -20.1
-70.695496 43.032007 -16.2
-70.693218 43.032009 -17.4
-70.690974 43.032015 -18.6
-70.693893 43.032018 -17.1
-70.691515 43.032023 -18.3
-70.697346 43.032029 -15.8
-70.690415 43.032037 -18.9
-70.694888 43.032040 -16.5
-70.689802 43.032043 -19.5
-70.696124 43.032043 -16.5
-70.696710 43.032051 -15.8
-70.698440 43.032057 -13.4
-70.699293 43.032198 -14.3
-70.694404 43.032373 -16.8
-70.694357 43.032379 -16.8
-70.693213 43.032407 -17.4
-70.692140 43.032482 -18.0
-70.691599 43.032507 -18.3
-70.691024 43.032540 -18.6
-70.690477 43.032559 -18.9
-70.689896 43.032584 -19.5
-70.689335 43.032587 -19.8
-70.686074 43.032601 -22.3
-70.688804 43.032607 -20.1
-70.686635 43.032618 -21.6
-70.685602 43.032623 -22.6
-70.687163 43.032629 -21.3
-70.688215 43.032632 -20.4
-70.687671 43.032640 -21.0
-70.699329 43.032668 -13.4
-70.692790 43.032673 -17.4
-70.698371 43.032684 -14.3
-70.697829 43.032690 -14.9
-70.695504 43.032693 -16.2
-70.694418 43.032698 -16.8
-70.694971 43.032701 -16.2
-70.693982 43.032712 -16.8
-70.696007 43.032712 -15.8
-70.697204 43.032712 -13.4
-70.693460 43.032721 -17.1
-70.696549 43.032729 -15.8
-70.698704 43.032901 -14.3
-70.692477 43.033057 -17.7
-70.699268 43.033190 -14.9
-70.698546 43.033221 -15.8
-70.692818 43.033304 -17.4
-70.707763 43.016823 -17.1
-70.707099 43.017012 -19.2
-70.714088 43.017043 -18.3
-70.704827 43.017096 -16.2
-70.705765 43.017104 -15.5
-70.703582 43.017109 -19.8
-70.701657 43.017121 -20.4
-70.704188 43.017123 -18.3
-70.702957 43.017132 -19.5
-70.707838 43.017134 -18.9
-70.702240 43.017151 -18.0
-70.708507 43.017173 -18.6
-70.706627 43.017187 -15.8
-70.709077 43.017207 -19.5
-70.709677 43.017212 -18.9
-70.711385 43.017240 -16.5
-70.712143 43.017240 -17.7
-70.710243 43.017243 -18.3
-70.710868 43.017254 -17.7
-70.713415 43.017254 -18.6
-70.712760 43.017259 -16.8
-70.715810 43.017279 -16.8
-70.715188 43.017290 -17.1
-70.714399 43.017318 -17.7
-70.705802 43.017443 -14.3
-70.714760 43.017582 -17.4
-70.715668 43.017648 -16.8
-70.705071 43.017665 -17.4
-70.704502 43.017854 -18.0
-70.703879 43.017937 -16.5
-70.714329 43.018012 -16.8
-70.715977 43.018021 -16.5
-70.713424 43.018032 -18.3
-70.712840 43.018034 -18.9
-70.712296 43.018043 -18.0
-70.711777 43.018054 -18.9
-70.707004 43.018057 -16.2
-70.704954 43.018068 -18.0
-70.715368 43.018073 -15.8
-70.707554 43.018076 -20.1
-70.705518 43.018082 -17.4
-70.706174 43.018082 -14.9
-70.711090 43.018082 -17.1
-70.708652 43.018096 -19.8
-70.709693 43.018096 -17.4
-70.708104 43.018098 -19.2
-70.703107 43.018118 -15.2
-70.709124 43.018121 -18.9
-70.710299 43.018123 -14.9
-70.702527 43.018146 -15.8
-70.701996 43.018162 -17.1
-70.703535 43.018162 -15.5
-70.701504 43.018184 -17.1
-70.706618 43.018271 -14.6
-70.704215 43.018282 -14.9
-70.705313 43.018354 -15.2
-70.702835 43.018426 -14.6
-70.712563 43.018548 -18.0
-70.711996 43.018562 -17.1
-70.711396 43.018565 -15.8
-70.713146 43.018565 -17.1
-70.709679 43.018571 -18.0
-70.713693 43.018573 -17.1
-70.709132 43.018576 -18.9
-70.707979 43.018579 -19.8
-70.710310 43.018584 -15.5
-70.710860 43.018584 -15.5
-70.714260 43.018590 -16.5
-70.708493 43.018598 -19.8
-70.714849 43.018601 -15.2
-70.705760 43.018607 -16.2
-70.707368 43.018607 -14.9
-70.706702 43.018609 -15.8
-70.715440 43.018609 -13.4
-70.699599 43.018646 -18.9
-70.705246 43.018657 -14.3
-70.700190 43.018671 -18.6
-70.703818 43.018679 -11.9
-70.700985 43.018684 -17.4
-70.704404 43.018690 -12.2
-70.703232 43.018693 -12.8
-70.702649 43.018698 -13.7
-70.702004 43.018704 -16.5
-70.701446 43.018848 -18.0
-70.706096 43.018962 -14.9
-70.705071 43.019004 -14.9
-70.704554 43.019032 -12.8
-70.714338 43.019098 -14.3
-70.700349 43.019143 -18.9
-70.700771 43.019284 -18.0
-70.701371 43.019290 -17.7
-70.699874 43.019293 -17.1
-70.702024 43.019293 -15.5
-70.705518 43.019321 -14.6
-70.704904 43.019323 -13.7
-70.704440 43.019332 -14.0
-70.702613 43.019357 -14.3
-70.703421 43.019368 -12.2
-70.703879 43.019393 -12.5
-70.706088 43.019446 -14.6
-70.707660 43.019457 -17.1
-70.706718 43.019468 -16.5
-70.708621 43.019484 -17.7
-70.715252 43.019496 -11.9
-70.710524 43.019498 -13.1
-70.709277 43.019501 -15.2
-70.711110 43.019501 -14.0
-70.714552 43.019501 -11.6
-70.713371 43.019504 -14.0
-70.711671 43.019509 -17.4
-70.712302 43.019509 -16.8
-70.709879 43.019512 -15.5
-70.715907 43.019546 -12.8
-70.703665 43.019626 -13.1
-70.704379 43.019626 -11.3
-70.713940 43.019634 -12.8
-70.700435 43.019684 -19.8
-70.699804 43.019696 -17.1
-70.700988 43.019718 -18.3
-70.704807 43.019732 -10.7
-70.701607 43.019748 -17.1
-70.702349 43.019768 -14.0
-70.702915 43.019776 -14.0
-70.703782 43.019951 -11.6
-70.704224 43.019951 -10.7
-70.700699 43.019965 -18.9
-70.708982 43.019965 -17.1
-70.706024 43.019993 -17.7
-70.708396 43.019993 -18.6
-70.715802 43.019998 -12.5
-70.701982 43.020001 -14.9
-70.707760 43.020001 -18.0
-70.715224 43.020001 -11.6
-70.705443 43.020004 -13.7
-70.709815 43.020007 -12.5
-70.712304 43.020007 -16.2
-70.701371 43.020009 -16.5
-70.699665 43.020018 -19.8
-70.704685 43.020018 -9.8
-70.714296 43.020021 -11.6
-70.707124 43.020029 -18.9
-70.702582 43.020032 -14.3
-70.710613 43.020040 -13.7
-70.711385 43.020068 -14.3
-70.712979 43.020073 -13.7
-70.713515 43.020129 -13.4
-70.703418 43.020171 -11.0
-70.706627 43.020187 -18.9
-70.709365 43.020262 -14.9
-70.710321 43.020284 -14.0
-70.705124 43.020290 -11.0
-70.707732 43.020293 -16.8
-70.705824 43.020298 -16.8
-70.708840 43.020298 -15.8
-70.702715 43.020318 -14.0
-70.704088 43.020326 -7.9
-70.708396 43.020329 -18.6
-70.701388 43.020379 -16.8
-70.702171 43.020396 -14.9
-70.703685 43.020432 -7.3
-70.704729 43.020440 -8.5
-70.706996 43.020459 -17.4
-70.700529 43.020484 -19.5
-70.713157 43.020487 -13.4
-70.702996 43.020576 -10.1
-70.715529 43.020615 -12.2
-70.714977 43.020621 -11.6
-70.714449 43.020657 -13.4
-70.713604 43.020668 -15.5
-70.711777 43.020704 -13.7
-70.712385 43.020712 -14.6
-70.711085 43.020721 -13.4
-70.712974 43.020729 -15.8
-70.704902 43.020759 -7.9
-70.702402 43.020768 -13.4
-70.705632 43.020796 -8.2
-70.701365 43.020798 -13.7
-70.703215 43.020798 -8.8
-70.703707 43.020807 -7.0
-70.701888 43.020815 -13.1
-70.704404 43.020823 -8.5
-70.700146 43.020851 -18.3
-70.707438 43.020854 -14.9
-70.706435 43.020857 -14.3
-70.708285 43.020862 -16.8
-70.700738 43.020873 -16.5
-70.708974 43.020887 -16.5
-70.710074 43.020898 -15.5
-70.709546 43.020929 -14.3
-70.710577 43.020954 -14.3
-70.711160 43.020976 -12.8
-70.715835 43.020976 -13.1
-70.705182 43.020979 -11.9
-70.712229 43.020996 -16.2
-70.703696 43.020998 -6.7
-70.712929 43.021001 -15.5
-70.714193 43.021009 -14.0
-70.713546 43.021012 -13.7
-70.715015 43.021015 -12.5
-70.702502 43.021018 -11.9
-70.703082 43.021021 -7.6
-70.701560 43.021032 -12.8
-70.707821 43.021107 -15.8
-70.701038 43.021223 -14.9
-70.702713 43.021232 -8.2
-70.700054 43.021237 -17.7
-70.708777 43.021237 -18.0
-70.710627 43.021243 -14.3
-70.700513 43.021248 -16.2
-70.715077 43.021251 -12.8
-70.704657 43.021276 -10.7
-70.701860 43.021287 -12.8
-70.712043 43.021287 -15.2
-70.703538 43.021290 -7.6
-70.705274 43.021290 -11.9
-70.707179 43.021290 -15.8
-70.711404 43.021293 -13.1
-70.704218 43.021296 -8.2
-70.706463 43.021304 -12.8
-70.713593 43.021321 -14.3
-70.705949 43.021323 -9.4
-70.712890 43.021346 -14.0
-70.702274 43.021376 -10.1
-70.702949 43.021446 -7.3
-70.708332 43.021446 -15.8
-70.715618 43.021490 -14.3
-70.700432 43.021504 -16.2
-70.712313 43.021512 -15.5
-70.714771 43.021512 -12.2
-70.699821 43.021521 -17.1
-70.701582 43.021521 -11.9
-70.701038 43.021529 -12.8
-70.713338 43.021534 -14.6
-70.704399 43.021546 -9.8
-70.707407 43.021546 -14.3
-70.709732 43.021546 -16.8
-70.714193 43.021546 -12.5
-70.710329 43.021551 -15.8
-70.710910 43.021551 -14.0
-70.709143 43.021554 -16.2
-70.705024 43.021559 -14.0
-70.711474 43.021565 -14.9
-70.703343 43.021568 -7.6
-70.703885 43.021576 -8.5
-70.705538 43.021593 -14.0
-70.706143 43.021596 -12.5
-70.706840 43.021601 -14.3
-70.702190 43.021746 -8.8
-70.702910 43.021779 -7.6
-70.701671 43.021793 -11.3
-70.715154 43.021812 -14.6
-70.707018 43.021876 -12.2
-70.705446 43.021882 -15.5
-70.704221 43.021887 -10.7
-70.703765 43.021890 -9.4
-70.704982 43.021898 -15.5
-70.708940 43.021901 -16.8
-70.701115 43.021904 -13.1
-70.705882 43.021904 -16.8
-70.700371 43.021909 -14.0
-70.714549 43.021918 -13.7
-70.706396 43.021934 -16.2
-70.702415 43.021971 -7.3
-70.708363 43.021979 -18.6
-70.712488 43.021982 -14.9
-70.707879 43.021987 -15.5
-70.710810 43.021996 -15.5
-70.710277 43.021998 -16.8
-70.709715 43.022004 -18.0
-70.713063 43.022007 -15.8
-70.713904 43.022018 -14.9
-70.703129 43.022040 -7.9
-70.701899 43.022048 -8.5
-70.711677 43.022179 -12.8
-70.708096 43.022223 -17.7
-70.716099 43.022240 -13.4
-70.699510 43.022243 -15.2
-70.704360 43.022243 -14.9
-70.705265 43.022243 -15.2
-70.709379 43.022246 -14.9
-70.706524 43.022251 -13.7
-70.714399 43.022254 -14.6
-70.715504 43.022254 -14.0
-70.705921 43.022257 -16.5
-70.708657 43.022259 -17.4
-70.712163 43.022265 -15.5
-70.714977 43.022265 -14.3
-70.713468 43.022268 -14.9
-70.703765 43.022271 -11.9
-70.701729 43.022273 -6.7
-70.702338 43.022273 -7.0
-70.707404 43.022273 -14.3
-70.711007 43.022276 -14.6
-70.701193 43.022279 -9.8
-70.703240 43.022282 -9.4
-70.710390 43.022282 -15.2
-70.700043 43.022284 -14.3
-70.712740 43.022290 -14.6
-70.700640 43.022296 -12.5
-70.703027 43.022509 -9.4
-70.705371 43.022509 -16.8
-70.704218 43.022512 -15.5
-70.706827 43.022512 -14.9
-70.708557 43.022521 -17.4
-70.700768 43.022532 -11.0
-70.700238 43.022534 -13.4
-70.707996 43.022537 -17.4
-70.711960 43.022540 -15.8
-70.713379 43.022543 -15.2
-70.701810 43.022546 -6.1
-70.713885 43.022546 -15.2
-70.705946 43.022551 -14.6
-70.711352 43.022568 -12.8
-70.702432 43.022576 -9.1
-70.710457 43.022596 -14.6
-70.712413 43.022673 -15.5
-70.707415 43.022679 -17.4
-70.704671 43.022718 -17.1
-70.703710 43.022734 -14.9
-70.709049 43.022734 -15.5
-70.703202 43.022743 -10.4
-70.701374 43.022748 -5.8
-70.709960 43.022784 -14.6
-70.713252 43.022829 -15.2
-70.714424 43.022840 -14.6
-70.711802 43.022851 -15.2
-70.702354 43.022859 -8.5
-70.700882 43.022871 -9.8
-70.704910 43.022968 -18.0
-70.705510 43.022968 -18.3
-70.701907 43.022979 -7.9
-70.707260 43.022979 -17.1
-70.703765 43.022990 -16.8
-70.702688 43.022998 -10.4
-70.705899 43.022998 -17.4
-70.704368 43.023004 -15.8
-70.707804 43.023018 -16.8
-70.701354 43.023026 -6.4
-70.706607 43.023029 -17.4
-70.715765 43.023032 -13.1
-70.700388 43.023043 -9.8
-70.712388 43.023051 -15.2
-70.708702 43.023057 -15.2
-70.709335 43.023057 -15.5
-70.711213 43.023057 -11.9
-70.699840 43.023059 -12.2
-70.715160 43.023059 -13.4
-70.712977 43.023065 -14.9
-70.709879 43.023082 -14.6
-70.714063 43.023082 -14.0
-70.702110 43.023171 -7.0
-70.700860 43.023173 -7.9
-70.704099 43.023257 -16.8
-70.705963 43.023265 -18.0
-70.702904 43.023276 -12.2
-70.705352 43.023279 -15.5
-70.706527 43.023304 -17.4
-70.701271 43.023312 -8.2
-70.707077 43.023318 -17.1
-70.709024 43.023326 -15.8
-70.711757 43.023326 -15.2
-70.708474 43.023329 -16.2
-70.707935 43.023340 -16.5
-70.709568 43.023346 -15.5
-70.711140 43.023346 -13.7
-70.703318 43.023348 -17.7
-70.712196 43.023351 -14.9
-70.710602 43.023357 -13.1
-70.701940 43.023362 -7.0
-70.699699 43.023368 -11.9
-70.700210 43.023376 -9.4
-70.702477 43.023379 -11.9
-70.712868 43.023393 -14.6
-70.713577 43.023409 -14.3
-70.700804 43.023412 -6.7
-70.714213 43.023434 -14.0
-70.705032 43.023457 -17.1
-70.704557 43.023459 -18.0
-70.710093 43.023462 -14.3
-70.715085 43.023468 -13.4
-70.716029 43.023476 -12.8
-70.701604 43.023534 -8.2
-70.701157 43.023565 -6.1
-70.709529 43.023629 -14.6
-70.700743 43.023698 -7.9
-70.702721 43.023743 -15.5
-70.702171 43.023746 -12.5
-70.703232 43.023748 -17.4
-70.703810 43.023751 -18.0
-70.704349 43.023768 -17.7
-70.704949 43.023776 -17.1
-70.705982 43.023776 -16.5
-70.700129 43.023818 -9.1
-70.707196 43.023837 -16.2
-70.707777 43.023837 -15.8
-70.706652 43.023846 -16.5
-70.708877 43.023851 -14.9
-70.701246 43.023865 -8.5
-70.710004 43.023873 -14.3
-70.712188 43.023882 -13.7
-70.699646 43.023890 -11.3
-70.711113 43.023901 -14.0
-70.716063 43.023904 -12.2
-70.715524 43.023918 -12.5
-70.714346 43.023937 -13.1
-70.714896 43.023948 -12.8
-70.713335 43.023957 -13.4
-70.700418 43.024004 -8.5
-70.708285 43.024004 -15.2
-70.702765 43.024068 -16.5
-70.701218 43.024076 -9.8
-70.702229 43.024087 -16.8
-70.701718 43.024090 -13.4
-70.703218 43.024093 -18.6
-70.703721 43.024109 -18.3
-70.704654 43.024115 -17.1
-70.704165 43.024132 -17.7
-70.707771 43.024171 -15.2
-70.699899 43.024209 -10.1
-70.700624 43.024259 -10.1
-70.707199 43.024382 -15.2
-70.703260 43.024418 -14.0
-70.703829 43.024426 -15.8
-70.711946 43.024434 -13.4
-70.709763 43.024448 -14.6
-70.704579 43.024454 -16.8
-70.705535 43.024459 -16.2
-70.715588 43.024468 -11.9
-70.708263 43.024482 -14.9
-70.714499 43.024484 -12.5
-70.701063 43.024501 -12.8
-70.713321 43.024504 -13.1
-70.715107 43.024504 -12.2
-70.701618 43.024507 -13.7
-70.707782 43.024509 -15.5
-70.713943 43.024509 -12.8
-70.702171 43.024518 -16.2
-70.699952 43.024521 -10.1
-70.711082 43.024523 -13.4
-70.712790 43.024526 -13.1
-70.700524 43.024529 -12.8
-70.706632 43.024546 -15.2
-70.708927 43.024548 -14.6
-70.710449 43.024551 -13.7
-70.702732 43.024557 -15.8
-70.712274 43.024715 -13.1
-70.706071 43.024721 -15.2
-70.709499 43.024798 -14.6
-70.699718 43.024809 -12.2
-70.701429 43.024815 -15.8
-70.701971 43.024815 -15.2
-70.702490 43.024829 -15.2
-70.700979 43.024834 -15.8
-70.700440 43.024857 -13.7
-70.702957 43.024859 -15.5
-70.703446 43.024887 -15.8
-70.704665 43.024890 -16.2
-70.704196 43.024896 -16.5
-70.705546 43.024896 -15.5
-70.712788 43.025018 -12.8
-70.700310 43.025107 -17.4
-70.704974 43.025115 -15.5
-70.700824 43.025118 -16.2
-70.708193 43.025118 -14.9
-70.709199 43.025121 -14.6
-70.701643 43.025140 -17.7
-70.707607 43.025146 -14.9
-70.699768 43.025157 -16.2
-70.702185 43.025157 -17.1
-70.706002 43.025168 -15.2
-70.709977 43.025187 -14.0
-70.706929 43.025196 -13.7
-70.710490 43.025196 -13.7
-70.702757 43.025204 -16.8
-70.711029 43.025212 -13.4
-70.703318 43.025229 -16.8
-70.711596 43.025237 -13.1
-70.712124 43.025271 -12.8
-70.703968 43.025273 -16.5
-70.704438 43.025273 -15.5
-70.713252 43.025312 -12.5
-70.713835 43.025318 -12.5
-70.715782 43.025318 -11.6
-70.714893 43.025323 -12.2
-70.703818 43.025501 -15.8
-70.708915 43.025504 -14.3
-70.715588 43.025621 -11.6
-70.714082 43.025623 -12.5
-70.714671 43.025623 -12.2
-70.713104 43.025629 -12.8
-70.713582 43.025643 -12.5
-70.703243 43.025687 -15.8
-70.700213 43.025818 -16.5
-70.708618 43.025837 -14.3
-70.711318 43.025884 -13.1
-70.711968 43.025890 -12.5
-70.705388 43.025904 -15.2
-70.701502 43.025909 -17.7
-70.703685 43.025909 -16.5
-70.704279 43.025909 -16.2
-70.710285 43.025915 -13.7
-70.715163 43.025915 -11.9
-70.704804 43.025926 -15.8
-70.712465 43.025926 -12.5
-70.712968 43.025926 -12.8
-70.715752 43.025929 -11.3
-70.714485 43.025932 -11.0
-70.702643 43.025943 -16.2
-70.713613 43.025957 -12.8
-70.705907 43.025962 -14.6
-70.709115 43.025965 -14.0
-70.706460 43.025976 -14.9
-70.706977 43.025976 -14.9
-70.709679 43.025990 -14.0
