-70.785331 42.893039 -22.3
-70.785250 42.892661 -22.3
-70.784611 42.892131 -22.3
-70.784011 42.892139 -22.3
-70.785189 42.891581 -22.3
-70.783211 42.891461 -22.3
-70.781550 42.890361 -22.3
-70.784500 42.880950 -22.3
-70.785189 42.880289 -22.3
-70.787669 42.879431 -22.3
-70.790519 42.881481 -22.3
-70.790700 42.876939 -22.3
-70.787450 42.877889 -22.3
-70.787511 42.873831 -22.3
-70.792111 42.874211 -22.3
-70.790831 42.869850 -22.3
-70.790400 42.869789 -22.3
-70.790219 42.870361 -22.3
-70.792019 42.868350 -22.3
-70.792169 42.867739 -22.3
-70.792381 42.867000 -22.3
-70.792481 42.866750 -22.3
-70.791819 42.866739 -22.3
-70.792889 42.865869 -22.3
-70.793131 42.864911 -22.3
-70.791869 42.864950 -22.3
-70.788269 42.863811 -22.3
-70.790281 42.864211 -22.3
-70.792239 42.862981 -22.3
-70.792850 42.862961 -22.3
-70.792711 42.860539 -22.3
-70.791439 42.859881 -22.3
-70.790869 42.859900 -22.3
-70.793119 42.856489 -22.3
-70.792481 42.856031 -22.3
-70.792361 42.855289 -22.3
-70.792131 42.854711 -22.3
-70.792050 42.853911 -22.3
-70.792250 42.853400 -22.3
-70.792861 42.853431 -22.3
-70.791400 42.853919 -22.3
-70.791511 42.853131 -22.3
-70.791750 42.852150 -22.3
-70.791469 42.850939 -22.3
-70.791161 42.850381 -22.3
-70.790719 42.849411 -22.3
-70.791611 42.870350 -22.3
-70.789200 42.868439 -22.3
-70.786381 42.863131 -22.3
-70.784239 42.873469 -22.3
-70.790100 42.849381 -22.6
-70.791081 42.852119 -22.6
-70.790911 42.853169 -22.6
-70.791500 42.854469 -22.6
-70.791539 42.854919 -22.6
-70.791700 42.855269 -22.6
-70.791861 42.856039 -22.6
-70.791731 42.856839 -22.6
-70.792631 42.856481 -22.6
-70.791100 42.857911 -22.6
-70.790869 42.858261 -22.6
-70.792050 42.860561 -22.6
-70.792161 42.861311 -22.6
-70.792031 42.862750 -22.6
-70.792069 42.862381 -22.6
-70.793019 42.863439 -22.6
-70.793200 42.863750 -22.6
-70.792900 42.864061 -22.6
-70.792511 42.864931 -22.6
-70.792581 42.866119 -22.6
-70.791311 42.866111 -22.6
-70.791700 42.867011 -22.6
-70.789450 42.866781 -22.6
-70.789831 42.867119 -22.6
-70.791411 42.868361 -22.6
-70.790231 42.870900 -22.6
-70.790169 42.871411 -22.6
-70.789831 42.872261 -22.6
-70.789569 42.874200 -22.6
-70.789319 42.873900 -22.6
-70.788381 42.873389 -22.6
-70.788739 42.874939 -22.6
-70.788211 42.875961 -22.6
-70.790550 42.882039 -22.6
-70.789931 42.882061 -22.6
-70.789581 42.881900 -22.6
-70.789989 42.881531 -22.6
-70.783800 42.880931 -22.6
-70.783089 42.881831 -22.6
-70.781511 42.890700 -22.6
-70.781831 42.890950 -22.6
-70.782800 42.892081 -22.6
-70.783450 42.892111 -22.6
-70.784661 42.893119 -22.6
-70.784961 42.893439 -22.6
-70.784050 42.893150 -22.6
-70.783039 42.894219 -22.6
-70.781881 42.894961 -22.6
-70.783050 42.895061 -22.6
-70.783611 42.894731 -22.6
-70.783481 42.895550 -22.6
-70.783469 42.896231 -22.6
-70.783150 42.897000 -22.6
-70.783361 42.898539 -22.6
-70.777239 42.909439 -22.6
-70.777050 42.910069 -22.6
-70.777581 42.910089 -22.6
-70.776911 42.910819 -22.6
-70.777369 42.911831 -22.6
-70.776761 42.912611 -22.6
-70.776750 42.913161 -22.6
-70.776969 42.913700 -22.6
-70.773339 42.917350 -22.6
-70.774300 42.917339 -22.6
-70.772800 42.918200 -22.6
-70.772250 42.918161 -22.6
-70.771219 42.918681 -22.6
-70.770761 42.918669 -22.6
-70.764481 42.933069 -22.6
-70.764450 42.934631 -22.6
-70.763569 42.936269 -22.6
-70.762981 42.936231 -22.6
-70.763911 42.936961 -22.6
-70.763369 42.936969 -22.6
-70.762819 42.936969 -22.6
-70.762789 42.937389 -22.6
-70.763369 42.937381 -22.6
-70.762281 42.938261 -22.6
-70.762950 42.938261 -22.6
-70.763669 42.939289 -22.6
-70.763761 42.938969 -22.6
-70.762731 42.940189 -22.6
-70.762889 42.941150 -22.6
-70.762169 42.942019 -22.6
-70.761589 42.942011 -22.6
-70.790831 42.850931 -22.9
-70.790411 42.852081 -22.9
-70.790719 42.853900 -22.9
-70.791039 42.855100 -22.9
-70.791100 42.856850 -22.9
-70.790669 42.857461 -22.9
-70.791411 42.860531 -22.9
-70.791611 42.861869 -22.9
-70.793100 42.864261 -22.9
-70.792319 42.864031 -22.9
-70.792850 42.865289 -22.9
-70.792250 42.865869 -22.9
-70.792000 42.866119 -22.9
-70.793439 42.865350 -22.9
-70.791181 42.866719 -22.9
-70.791069 42.867000 -22.9
-70.791211 42.868961 -22.9
-70.790461 42.868961 -22.9
-70.790111 42.869289 -22.9
-70.789700 42.870389 -22.9
-70.788619 42.873131 -22.9
-70.788861 42.873931 -22.9
-70.787389 42.875569 -22.9
-70.787161 42.878389 -22.9
-70.787150 42.879419 -22.9
-70.781619 42.882389 -22.9
-70.784631 42.892611 -22.9
-70.784311 42.893419 -22.9
-70.784300 42.893961 -22.9
-70.783500 42.893181 -22.9
-70.782461 42.894981 -22.9
-70.782261 42.895519 -22.9
-70.782869 42.895489 -22.9
-70.783361 42.897469 -22.9
-70.782761 42.897489 -22.9
-70.776731 42.911819 -22.9
-70.776081 42.912589 -22.9
-70.776150 42.913169 -22.9
-70.776319 42.913681 -22.9
-70.775661 42.913650 -22.9
-70.772261 42.917331 -22.9
-70.772781 42.917361 -22.9
-70.773769 42.917339 -22.9
-70.770281 42.918631 -22.9
-70.763900 42.933069 -22.9
-70.762481 42.936200 -22.9
-70.762300 42.936919 -22.9
-70.762311 42.937361 -22.9
-70.761750 42.938250 -22.9
-70.763219 42.938950 -22.9
-70.762669 42.938939 -22.9
-70.762131 42.938950 -22.9
-70.763181 42.939300 -22.9
-70.762369 42.941100 -22.9
-70.762289 42.939350 -22.9
-70.782111 42.896950 -22.9
-70.783550 42.898011 -22.9
-70.790461 42.850339 -23.2
-70.790211 42.850911 -23.2
-70.790369 42.853269 -23.2
-70.790161 42.854439 -23.2
-70.790831 42.854481 -23.2
-70.790511 42.855300 -23.2
-70.790519 42.856000 -23.2
-70.791181 42.856031 -23.2
-70.790431 42.856861 -23.2
-70.790331 42.859950 -23.2
-70.790850 42.860561 -23.2
-70.791539 42.861361 -23.2
-70.792719 42.863689 -23.2
-70.792550 42.863431 -23.2
-70.789719 42.864231 -23.2
-70.790569 42.866781 -23.2
-70.792411 42.867239 -23.2
-70.791839 42.867219 -23.2
-70.790800 42.868361 -23.2
-70.789889 42.868950 -23.2
-70.789731 42.869950 -23.2
-70.790711 42.870339 -23.2
-70.790339 42.870611 -23.2
-70.789231 42.870419 -23.2
-70.789619 42.870919 -23.2
-70.789569 42.871389 -23.2
-70.788531 42.872231 -23.2
-70.787989 42.873089 -23.2
-70.788039 42.872850 -23.2
-70.789019 42.874239 -23.2
-70.783231 42.880989 -23.2
-70.782339 42.881811 -23.2
-70.782000 42.882019 -23.2
-70.782339 42.882439 -23.2
-70.784011 42.892581 -23.2
-70.782781 42.892450 -23.2
-70.783700 42.893950 -23.2
-70.783669 42.893450 -23.2
-70.782961 42.894719 -23.2
-70.782111 42.896219 -23.2
-70.782781 42.896231 -23.2
-70.782819 42.896731 -23.2
-70.782619 42.896981 -23.2
-70.783011 42.897939 -23.2
-70.776161 42.911819 -23.2
-70.775489 42.913181 -23.2
-70.771369 42.918131 -23.2
-70.771789 42.918139 -23.2
-70.768769 42.918600 -23.2
-70.769231 42.918611 -23.2
-70.769750 42.918619 -23.2
-70.761231 42.938269 -23.2
-70.761589 42.938950 -23.2
-70.761439 42.939381 -23.2
-70.760539 42.941969 -23.5
-70.761761 42.941061 -23.5
-70.760611 42.939461 -23.5
-70.759719 42.939481 -23.5
-70.761100 42.938950 -23.5
-70.760669 42.938281 -23.5
-70.775089 42.913650 -23.5
-70.774831 42.913219 -23.5
-70.775439 42.912619 -23.5
-70.775519 42.911800 -23.5
-70.782369 42.896439 -23.5
-70.782269 42.894739 -23.5
-70.783089 42.893950 -23.5
-70.781600 42.881800 -23.5
-70.782589 42.880989 -23.5
-70.786081 42.876389 -23.5
-70.787669 42.875989 -23.5
-70.788200 42.874761 -23.5
-70.788711 42.873569 -23.5
-70.787919 42.872211 -23.5
-70.787019 42.871839 -23.5
-70.787789 42.870711 -23.5
-70.789789 42.870631 -23.5
-70.789269 42.868919 -23.5
-70.788661 42.868450 -23.5
-70.791319 42.867169 -23.5
-70.790400 42.867031 -23.5
-70.789900 42.866750 -23.5
-70.792531 42.864250 -23.5
-70.792081 42.863689 -23.5
-70.788150 42.865039 -23.5
-70.790169 42.860589 -23.5
-70.789611 42.859450 -23.5
-70.789561 42.859219 -23.5
-70.789561 42.858231 -23.5
-70.790231 42.858261 -23.5
-70.789750 42.856839 -23.5
-70.789831 42.856561 -23.5
-70.789881 42.855989 -23.5
-70.790100 42.855561 -23.5
-70.790000 42.853950 -23.5
-70.789589 42.853189 -23.5
-70.789719 42.852089 -23.5
-70.789500 42.850911 -23.5
-70.788969 42.850900 -23.5
-70.789181 42.850331 -23.5
-70.789811 42.850331 -23.5
-70.789469 42.849389 -23.5
-70.788781 42.849350 -23.5
-70.790211 42.862489 -23.5
-70.788500 42.850269 -23.8
-70.788331 42.850861 -23.8
-70.789489 42.854419 -23.8
-70.789831 42.855219 -23.8
-70.789369 42.856119 -23.8
-70.789131 42.856819 -23.8
-70.789519 42.860611 -23.8
-70.790911 42.861369 -23.8
-70.791031 42.861881 -23.8
-70.789150 42.863189 -23.8
-70.787739 42.864189 -23.8
-70.792389 42.865381 -23.8
-70.791889 42.865369 -23.8
-70.787511 42.867631 -23.8
-70.788911 42.869219 -23.8
-70.788611 42.871750 -23.8
-70.788881 42.871350 -23.8
-70.789011 42.870961 -23.8
-70.787900 42.873350 -23.8
-70.787631 42.873631 -23.8
-70.787681 42.874081 -23.8
-70.787711 42.874739 -23.8
-70.787419 42.874931 -23.8
-70.786911 42.875569 -23.8
-70.786369 42.875600 -23.8
-70.785719 42.875581 -23.8
-70.787061 42.876011 -23.8
-70.782061 42.881011 -23.8
-70.782550 42.882050 -23.8
-70.760189 42.939450 -23.8
-70.760250 42.938300 -23.8
-70.761239 42.941031 -23.8
-70.788131 42.849350 -24.1
-70.787531 42.849361 -24.1
-70.786911 42.849331 -24.1
-70.787819 42.850219 -24.1
-70.787719 42.850831 -24.1
-70.789100 42.852050 -24.1
-70.788950 42.853111 -24.1
-70.789281 42.853939 -24.1
-70.789181 42.855231 -24.1
-70.788900 42.858181 -24.1
-70.788931 42.859419 -24.1
-70.789731 42.859950 -24.1
-70.789139 42.859961 -24.1
-70.788881 42.860631 -24.1
-70.791439 42.865369 -24.1
-70.790731 42.867169 -24.1
-70.789250 42.870631 -24.1
-70.788389 42.865869 -24.1
-70.787400 42.873319 -24.1
-70.786761 42.874961 -24.1
-70.787081 42.874681 -24.1
-70.788481 42.874239 -24.1
-70.781511 42.880989 -24.1
-70.759719 42.938239 -24.1
-70.759269 42.939500 -24.1
-70.786300 42.849350 -24.4
-70.786531 42.850169 -24.4
-70.787211 42.850211 -24.4
-70.786981 42.851881 -24.4
-70.788339 42.853119 -24.4
-70.788531 42.853961 -24.4
-70.788800 42.854389 -24.4
-70.788489 42.856019 -24.4
-70.788511 42.856831 -24.4
-70.788331 42.859231 -24.4
-70.790331 42.861381 -24.4
-70.790411 42.861869 -24.4
-70.788469 42.863189 -24.4
-70.789161 42.862769 -24.4
-70.788881 42.862461 -24.4
-70.791850 42.864281 -24.4
-70.789200 42.863831 -24.4
-70.787600 42.865111 -24.4
-70.787889 42.864800 -24.4
-70.787689 42.865889 -24.4
-70.791269 42.865819 -24.4
-70.786981 42.867619 -24.4
-70.787339 42.868000 -24.4
-70.787931 42.868881 -24.4
-70.787689 42.869169 -24.4
-70.788250 42.871350 -24.4
-70.788350 42.870981 -24.4
-70.788681 42.870669 -24.4
-70.788050 42.874269 -24.4
-70.786031 42.868800 -24.4
-70.786000 42.850100 -24.7
-70.785939 42.850819 -24.7
-70.786539 42.850850 -24.7
-70.787131 42.850839 -24.7
-70.787750 42.851961 -24.7
-70.788400 42.852031 -24.7
-70.788219 42.854350 -24.7
-70.788561 42.855231 -24.7
-70.787900 42.856789 -24.7
-70.788269 42.858200 -24.7
-70.788600 42.859989 -24.7
-70.788289 42.860669 -24.7
-70.789750 42.861389 -24.7
-70.789800 42.861889 -24.7
-70.788539 42.861431 -24.7
-70.787469 42.862439 -24.7
-70.788631 42.862769 -24.7
-70.788281 42.863531 -24.7
-70.786419 42.864019 -24.7
-70.786189 42.865119 -24.7
-70.786631 42.868819 -24.7
-70.787311 42.868850 -24.7
-70.785289 42.869139 -24.7
-70.785331 42.850039 -25.0
-70.786269 42.851839 -25.0
-70.787711 42.853100 -25.0
-70.787711 42.854019 -25.0
-70.787950 42.855200 -25.0
-70.787831 42.855969 -25.0
-70.787511 42.858181 -25.0
-70.787589 42.859411 -25.0
-70.789111 42.861389 -25.0
-70.787900 42.861439 -25.0
-70.788100 42.865361 -25.0
-70.787019 42.865850 -25.0
-70.786131 42.868531 -25.0
-70.786850 42.869881 -25.0
-70.786411 42.870369 -25.0
-70.787700 42.871019 -25.0
-70.789161 42.861831 -25.0
-70.785711 42.851819 -25.3
-70.787500 42.854300 -25.3
-70.787131 42.856000 -25.3
-70.787239 42.856769 -25.3
-70.786950 42.859169 -25.3
-70.787089 42.860669 -25.3
-70.788550 42.861861 -25.3
-70.786861 42.862450 -25.3
-70.787589 42.862750 -25.3
-70.788089 42.862761 -25.3
-70.787731 42.863569 -25.3
-70.785981 42.864700 -25.3
-70.785589 42.868531 -25.3
-70.787089 42.853089 -25.6
-70.787050 42.854000 -25.6
-70.786831 42.854311 -25.6
-70.787281 42.855189 -25.6
-70.786300 42.859369 -25.6
-70.787400 42.859989 -25.6
-70.787950 42.861839 -25.6
-70.787369 42.869839 -25.6
-70.786719 42.868319 -25.6
-70.786600 42.867931 -25.6
-70.785969 42.867961 -25.6
-70.786131 42.854300 -25.9
-70.786669 42.855169 -25.9
-70.786481 42.855969 -25.9
-70.786550 42.856739 -25.9
-70.786939 42.858169 -25.9
-70.785331 42.867089 -25.9
-70.787250 42.870081 -25.9
-70.785489 42.854289 -26.2
-70.785969 42.855131 -26.2
-70.785869 42.856739 -26.2
-70.786289 42.858181 -26.2
-70.785711 42.859100 -26.2
-70.786900 42.860000 -26.2
-70.788050 42.859989 -26.2
-70.786731 42.861800 -26.2
-70.787381 42.861869 -26.2
-70.784839 42.867111 -26.2
-70.785269 42.855031 -26.5
-70.785739 42.855969 -26.5
-70.786389 42.860611 -24.4
-70.785819 42.860550 -18.6
-70.785281 42.860519 -19.5
-70.785311 42.856731 -26.8
-70.784639 42.854939 -27.1
-70.784111 42.854881 -27.4
-70.795519 42.856789 -16.2
-70.795219 42.856989 -14.9
-70.794261 42.856919 -20.4
-70.796981 42.857569 -14.9
-70.796381 42.857561 -15.5
-70.796411 42.857039 -20.4
-70.797650 42.857081 -14.6
-70.793931 42.859400 -17.1
-70.786400 42.861469 -20.4
-70.788069 42.862469 -23.2
-70.789539 42.862481 -23.8
-70.789719 42.862731 -20.4
-70.790839 42.862481 -23.2
-70.791431 42.862419 -21.9
-70.791469 42.862750 -18.6
-70.790911 42.862789 -19.5
-70.791531 42.863031 -21.3
-70.791019 42.863050 -20.1
-70.790239 42.863081 -13.1
-70.790211 42.863631 -16.2
-70.790900 42.863850 -12.8
-70.791311 42.864300 -19.2
-70.790019 42.865019 -14.3
-70.791181 42.864961 -18.3
-70.789389 42.865381 -18.3
-70.789889 42.865369 -12.8
-70.790361 42.865231 -13.7
-70.790719 42.865369 -12.8
-70.788769 42.865031 -20.1
-70.788711 42.864811 -19.2
-70.788931 42.865900 -22.9
-70.789431 42.865931 -14.6
-70.789819 42.865789 -16.5
-70.790300 42.865889 -11.9
-70.790761 42.865869 -14.0
-70.788650 42.866200 -19.8
-70.789331 42.866211 -23.2
-70.790169 42.866139 -12.8
-70.790631 42.866150 -13.7
-70.787069 42.866189 -14.6
-70.786281 42.866161 -18.0
-70.785239 42.865589 -21.0
-70.787119 42.865089 -18.0
-70.785481 42.864639 -25.9
-70.786511 42.864700 -19.8
-70.787439 42.864761 -20.7
-70.786411 42.864431 -18.6
-70.787489 42.864450 -22.6
-70.788161 42.864450 -20.7
-70.788631 42.864431 -17.4
-70.788611 42.864189 -14.0
-70.788189 42.864200 -16.5
-70.786900 42.864061 -18.0
-70.787800 42.863831 -25.9
-70.788981 42.863600 -18.9
-70.789731 42.863811 -21.3
-70.787119 42.863539 -23.8
-70.787831 42.863150 -21.3
-70.787150 42.863150 -22.6
-70.786789 42.863169 -21.3
-70.795700 42.866139 -11.3
-70.795389 42.865789 -14.9
-70.797219 42.859739 -18.0
-70.797831 42.865419 -10.1
-70.786039 42.866731 -21.9
-70.786300 42.867131 -20.4
-70.811889 42.876681 -1.2
-70.812400 42.876239 -1.2
-70.809069 42.883389 -6.1
-70.809389 42.881181 -7.9
-70.809769 42.880500 -3.4
-70.807111 42.871461 -6.7
-70.806500 42.872881 -7.0
-70.806081 42.872411 -7.3
-70.805761 42.872881 -7.9
-70.807681 42.877511 -5.8
-70.807139 42.877539 -6.1
-70.806681 42.877511 -10.4
-70.807850 42.878261 -6.4
-70.807261 42.878269 -6.7
-70.806881 42.878500 -6.7
-70.806789 42.878850 -6.7
-70.806231 42.879361 -7.3
-70.807350 42.878839 -7.3
-70.806961 42.879319 -9.1
-70.809069 42.878850 -7.9
-70.808819 42.879569 -4.3
-70.808550 42.879761 -5.8
-70.808039 42.879761 -9.4
-70.807769 42.879269 -10.1
-70.807689 42.880439 -6.1
-70.807231 42.880431 -3.0
-70.806750 42.880189 -4.6
-70.807000 42.882600 -7.3
-70.807400 42.867931 -10.7
-70.806131 42.866831 -9.1
-70.805969 42.869161 -9.8
-70.806450 42.868861 -10.7
-70.805869 42.875769 -6.7
-70.805689 42.877561 -7.0
-70.805481 42.877839 -8.2
-70.804881 42.877839 -8.8
-70.805281 42.878200 -7.3
-70.804600 42.878219 -8.8
-70.803869 42.877919 -7.3
-70.803739 42.878161 -7.9
-70.803731 42.878411 -6.7
-70.804231 42.878400 -11.9
-70.803839 42.878781 -6.4
-70.804139 42.879000 -6.1
-70.804400 42.879389 -6.4
-70.803539 42.879431 -6.4
-70.805139 42.879369 -11.6
-70.803361 42.879781 -10.1
-70.802211 42.880139 -11.0
-70.804981 42.869389 -8.8
-70.804419 42.869369 -11.3
-70.804889 42.868961 -7.6
-70.804250 42.868939 -7.3
-70.805250 42.868681 -7.9
-70.804531 42.868711 -5.2
-70.803989 42.868700 -7.3
-70.803761 42.868381 -7.6
-70.805319 42.868061 -4.9
-70.805011 42.867919 -5.5
-70.804669 42.868061 -6.4
-70.804031 42.868061 -11.9
-70.805661 42.867639 -7.0
-70.805239 42.867631 -9.1
-70.804819 42.867631 -10.7
-70.804239 42.867619 -11.3
-70.803619 42.867881 -6.4
-70.803789 42.867650 -8.2
-70.803450 42.867661 -6.4
-70.804011 42.867181 -7.9
-70.803500 42.867219 -7.0
-70.803089 42.867250 -6.1
-70.803289 42.867011 -6.1
-70.803700 42.866769 -7.3
-70.804131 42.866739 -9.1
-70.803361 42.868089 -7.0
-70.802981 42.868081 -12.5
-70.803069 42.868431 -12.2
-70.803019 42.867889 -8.2
-70.802639 42.867889 -7.0
-70.802831 42.867669 -6.7
-70.802500 42.868081 -7.3
-70.802381 42.868419 -9.8
-70.802211 42.868700 -14.0
-70.801819 42.867650 -13.1
-70.801400 42.867289 -13.1
-70.801369 42.868439 -9.1
-70.800039 42.869111 -11.3
-70.804339 42.870539 -11.0
-70.804911 42.870219 -11.0
-70.803439 42.870569 -15.2
-70.803361 42.870869 -13.4
-70.802750 42.871211 -9.4
-70.802900 42.870881 -8.5
-70.802500 42.870981 -5.8
-70.802200 42.871181 -6.1
-70.801961 42.870911 -8.8
-70.801711 42.871139 -8.5
-70.801350 42.871139 -7.6
-70.801289 42.870900 -13.4
-70.800111 42.871050 -9.1
-70.800111 42.871589 -15.8
-70.800900 42.871611 -13.4
-70.800231 42.872161 -10.7
-70.800619 42.872169 -12.8
-70.801119 42.872200 -11.6
-70.801100 42.872500 -10.7
-70.801869 42.872519 -11.0
-70.801800 42.872781 -11.3
-70.804050 42.871539 -13.1
-70.802161 42.873481 -8.5
-70.801661 42.873531 -13.7
-70.800789 42.873861 -13.7
-70.799919 42.873839 -7.9
-70.800250 42.873981 -6.7
-70.800611 42.874081 -12.8
-70.799961 42.874161 -7.3
-70.799350 42.874589 -7.6
-70.799219 42.875161 -11.9
-70.799961 42.874611 -14.6
-70.800431 42.874539 -13.1
-70.800219 42.875181 -14.0
-70.801181 42.875211 -12.5
-70.801739 42.874100 -14.0
-70.802181 42.874139 -11.9
-70.802431 42.873881 -13.1
-70.802850 42.873881 -12.8
-70.802900 42.874619 -14.0
-70.801461 42.876489 -14.0
-70.801189 42.878111 -8.8
-70.801950 42.878119 -10.1
-70.801839 42.877650 -11.0
-70.802411 42.876911 -10.1
-70.803100 42.876939 -10.7
-70.803869 42.875739 -12.5
-70.804781 42.880419 -6.7
-70.805169 42.880419 -9.1
-70.804650 42.880169 -7.3
-70.803339 42.881569 -4.6
-70.803669 42.881461 -4.6
-70.804011 42.881081 -6.1
-70.803939 42.880869 -6.1
-70.803169 42.881950 -6.7
-70.803311 42.881169 -8.5
-70.804050 42.881531 -11.0
-70.804469 42.881531 -11.3
-70.804100 42.881939 -11.6
-70.804050 42.882369 -11.0
-70.803600 42.882389 -7.9
-70.803739 42.882939 -7.9
-70.804161 42.882919 -5.8
-70.803289 42.883411 -7.0
-70.802719 42.883761 -7.3
-70.797111 42.872731 -6.4
-70.796789 42.872731 -6.4
-70.797200 42.872450 -6.4
-70.797450 42.871911 -6.4
-70.797500 42.871481 -6.4
-70.799181 42.870419 -15.2
-70.798711 42.870081 -15.2
-70.798839 42.869650 -15.2
-70.799350 42.870100 -15.2
-70.797489 42.872739 -8.2
-70.796031 42.872700 -7.0
-70.798061 42.872469 -8.5
-70.797711 42.872231 -5.8
-70.797261 42.872219 -7.0
-70.796181 42.871661 -8.5
-70.797081 42.871889 -6.1
-70.797969 42.872011 -6.1
-70.798411 42.872050 -7.0
-70.798881 42.872081 -12.8
-70.799319 42.872119 -15.5
-70.798119 42.871489 -7.6
-70.798889 42.871069 -6.7
-70.798139 42.871061 -5.5
-70.797100 42.871050 -7.6
-70.796689 42.871031 -9.8
-70.796350 42.871031 -7.6
-70.796789 42.870739 -9.8
-70.797781 42.870769 -13.7
-70.798331 42.870781 -6.1
-70.798919 42.870800 -7.6
-70.796681 42.873289 -10.4
-70.794989 42.873261 -12.5
-70.794681 42.873519 -15.5
-70.795261 42.874061 -14.3
-70.799581 42.871581 -10.1
-70.799150 42.871569 -11.6
-70.797839 42.870339 -13.4
-70.797961 42.869700 -8.8
-70.797089 42.869589 -7.6
-70.798861 42.869119 -9.4
-70.798850 42.868831 -10.1
-70.799231 42.868431 -11.9
-70.799250 42.868081 -9.8
-70.799711 42.867669 -11.3
-70.799669 42.867231 -14.6
-70.798911 42.867669 -11.9
-70.798861 42.867989 -14.0
-70.798550 42.868389 -15.5
-70.798489 42.868119 -9.1
-70.798169 42.867931 -11.0
-70.798011 42.868411 -9.8
-70.797300 42.868050 -14.0
-70.797161 42.867739 -13.4
-70.795811 42.867211 -13.4
-70.792800 42.869911 -20.7
-70.787719 42.883269 -12.5
-70.787219 42.883289 -11.6
-70.786839 42.883269 -12.2
-70.786419 42.883269 -15.2
-70.785981 42.883289 -10.4
-70.785361 42.883269 -16.8
-70.784461 42.883261 -13.7
-70.783781 42.883281 -12.8
-70.781031 42.882269 -19.5
-70.781119 42.881939 -17.4
-70.780550 42.881839 -13.7
-70.787469 42.882800 -12.8
-70.786869 42.882611 -14.6
-70.786531 42.882831 -11.6
-70.785069 42.882750 -18.9
-70.784019 42.882500 -13.1
-70.784900 42.881881 -20.4
-70.785350 42.881861 -16.2
-70.787731 42.882419 -13.7
-70.788719 42.881519 -13.7
-70.788950 42.881289 -12.2
-70.788350 42.881261 -12.8
-70.787189 42.881369 -14.0
-70.787389 42.880850 -20.1
-70.788881 42.880711 -16.5
-70.788131 42.880381 -12.8
-70.788361 42.879400 -21.6
-70.789961 42.879200 -21.0
-70.789300 42.878650 -16.8
-70.789619 42.878350 -21.9
-70.789069 42.877839 -18.3
-70.789889 42.877331 -15.8
-70.790369 42.877350 -14.6
-70.789989 42.876911 -14.6
-70.789339 42.876489 -20.4
-70.789081 42.875911 -14.3
-70.790000 42.875811 -16.5
-70.789561 42.875481 -16.8
-70.788981 42.875519 -15.5
-70.788500 42.875569 -12.5
-70.788369 42.876469 -15.8
-70.787381 42.876461 -22.6
-70.784519 42.880250 -18.0
-70.786769 42.879431 -13.4
-70.786450 42.878711 -20.1
-70.786411 42.878339 -14.0
-70.785419 42.878331 -21.9
-70.786600 42.877889 -20.1
-70.786019 42.877231 -13.1
-70.787061 42.877219 -17.4
-70.786669 42.876861 -15.2
-70.787200 42.876219 -17.4
-70.785069 42.876281 -18.3
-70.786119 42.874969 -18.0
-70.787200 42.874269 -24.7
-70.786469 42.874181 -16.8
-70.790011 42.874231 -14.6
-70.789919 42.873911 -17.7
-70.790511 42.873939 -13.7
-70.790861 42.873769 -15.8
-70.791531 42.874219 -22.6
-70.791250 42.873239 -21.9
-70.789919 42.873189 -22.3
-70.789561 42.873181 -19.5
-70.787150 42.869169 -23.8
-70.788611 42.868900 -24.1
-70.788311 42.868469 -23.8
-70.787931 42.868389 -22.9
-70.787139 42.868481 -18.9
-70.784839 42.867119 -26.2
-70.784161 42.867500 -20.7
-70.784681 42.867500 -24.1
-70.784250 42.867981 -25.6
-70.784811 42.868000 -15.8
-70.785389 42.868300 -26.5
-70.789461 42.872919 -12.2
-70.788989 42.872931 -20.1
-70.790031 42.872939 -14.3
-70.790469 42.872931 -20.4
-70.792681 42.872939 -20.1
-70.789389 42.872269 -18.0
-70.790589 42.872239 -16.5
-70.791811 42.872269 -15.8
-70.792381 42.872261 -21.3
-70.791519 42.871381 -22.3
-70.790839 42.871419 -20.4
-70.792250 42.870489 -21.9
-70.794081 42.869089 -18.0
-70.793219 42.869050 -16.5
-70.793700 42.867100 -20.4
-70.794469 42.867481 -17.1
-70.792011 42.869011 -19.5
-70.791619 42.867900 -20.7
-70.789789 42.868411 -22.3
-70.790311 42.868369 -15.2
-70.789319 42.867919 -24.4
-70.789861 42.867819 -16.8
-70.790581 42.867919 -18.3
-70.789031 42.867611 -14.6
-70.789639 42.867569 -24.1
-70.790361 42.867669 -23.5
-70.789331 42.867150 -20.7
-70.789081 42.867011 -18.3
-70.787650 42.866969 -16.2
-70.787289 42.867150 -24.7
-70.788950 42.870019 -17.1
-70.788719 42.869789 -16.2
-70.788711 42.870400 -23.8
-70.789539 42.869289 -21.9
-70.784139 42.873989 -21.0
-70.784639 42.873981 -19.8
-70.785281 42.873919 -13.4
-70.785550 42.873750 -14.3
-70.786011 42.873931 -16.8
-70.786950 42.873839 -13.7
-70.786400 42.873669 -11.3
-70.785539 42.873461 -12.2
-70.783881 42.873789 -20.1
-70.783781 42.873469 -17.1
-70.783700 42.873189 -17.4
-70.784150 42.873181 -14.0
-70.784750 42.873231 -21.6
-70.785131 42.873250 -20.7
-70.786000 42.873219 -13.4
-70.786761 42.873319 -11.3
-70.782300 42.872831 -16.5
-70.782761 42.872819 -19.5
-70.783139 42.872831 -20.4
-70.783589 42.872831 -18.0
-70.784039 42.872861 -17.7
-70.784531 42.872881 -15.5
-70.785350 42.872911 -19.8
-70.786650 42.873031 -10.7
-70.787031 42.872911 -11.9
-70.787519 42.872900 -17.7
-70.786211 42.872889 -15.5
-70.786181 42.872200 -20.4
-70.786700 42.872200 -16.2
-70.783481 42.871769 -17.7
-70.783919 42.871781 -16.2
-70.786481 42.871850 -15.2
-70.788011 42.871800 -21.9
-70.785439 42.871839 -17.7
-70.786211 42.871261 -20.4
-70.787111 42.870961 -25.3
-70.786761 42.870681 -20.1
-70.785139 42.870789 -14.3
-70.783800 42.870350 -14.9
-70.784439 42.870339 -15.5
-70.784881 42.870369 -15.2
-70.785361 42.870361 -16.2
-70.784069 42.870011 -14.9
-70.784831 42.869989 -13.4
-70.784669 42.869781 -17.4
-70.795581 42.898311 -0.3
-70.795969 42.898161 -0.3
-70.796081 42.898361 -0.3
-70.797581 42.897061 -0.3
-70.800800 42.892100 -0.3
-70.801361 42.893689 -4.0
-70.801061 42.893489 -4.0
-70.801281 42.893289 -4.0
-70.800731 42.893689 -4.0
-70.799181 42.893461 -1.8
-70.798469 42.893019 -1.8
-70.798739 42.893000 -1.8
-70.799769 42.892961 -1.8
-70.800411 42.892889 -1.8
-70.800419 42.892519 -1.8
-70.802150 42.891481 -1.8
-70.797500 42.894781 -1.8
-70.796250 42.896969 -1.8
-70.793200 42.899511 -1.8
-70.800400 42.893289 -1.5
-70.799111 42.893039 -1.5
-70.799981 42.892950 -1.5
-70.793881 42.899681 -1.5
-70.794319 42.899650 -1.5
-70.794989 42.899339 -1.5
-70.795489 42.899069 -1.5
-70.793831 42.899061 -1.5
-70.793911 42.898800 -1.5
-70.794461 42.897839 -1.5
-70.794339 42.897569 -1.5
-70.794139 42.897389 -1.5
-70.794100 42.899311 -1.2
-70.794881 42.899089 -1.2
-70.795081 42.897839 -1.2
-70.800739 42.892900 -1.2
-70.802019 42.892331 -1.2
-70.793100 42.899000 -2.7
-70.793569 42.898711 -2.7
-70.793819 42.898250 -2.7
-70.793611 42.898061 -2.7
-70.793589 42.897819 -2.7
-70.794089 42.897831 -2.7
-70.795611 42.896911 -2.7
-70.800931 42.892481 -2.7
-70.801189 42.894531 -0.9
-70.801881 42.892089 -0.9
-70.801361 42.890661 -0.9
-70.800161 42.892581 -0.9
-70.794681 42.899350 -0.9
-70.795631 42.897339 -0.9
-70.794989 42.897369 -0.6
-70.800319 42.892181 -0.6
-70.799311 42.892039 -0.6
-70.796339 42.897889 -2.1
-70.796950 42.897919 -2.7
-70.797369 42.897939 -1.2
-70.797369 42.897650 -1.5
-70.796011 42.897339 -5.2
-70.795931 42.896969 -4.6
-70.795300 42.896881 -3.7
-70.794831 42.896811 -5.5
-70.793300 42.898261 -3.7
-70.793581 42.898361 -3.7
-70.794269 42.898131 -2.1
-70.797961 42.897311 -4.6
-70.798161 42.896989 -3.7
-70.798519 42.896439 -2.4
-70.798861 42.896431 -4.3
-70.797769 42.897050 -2.4
-70.798919 42.896169 -4.6
-70.798719 42.896911 -6.1
-70.798511 42.897619 -3.7
-70.799831 42.896811 -4.6
-70.799239 42.896861 -4.0
-70.799811 42.895850 -4.6
-70.799419 42.895839 -6.4
-70.793989 42.900131 -5.5
-70.794389 42.900111 -8.2
-70.794369 42.900800 -10.1
-70.795189 42.899661 -5.8
-70.795781 42.899631 -7.3
-70.796139 42.899361 -7.0
-70.797200 42.899050 -7.6
-70.797461 42.898739 -6.7
-70.798831 42.898631 -6.7
-70.798500 42.898411 -6.4
-70.801861 42.894519 -1.2
-70.800189 42.896089 -6.7
-70.800589 42.895850 -6.7
-70.800169 42.898381 -6.7
-70.797381 42.892719 -5.5
-70.797789 42.892689 -8.8
-70.797361 42.892331 -8.2
-70.798019 42.892261 -4.6
-70.798469 42.892239 -7.6
-70.798719 42.892011 -6.4
-70.799269 42.891511 -5.2
-70.801389 42.891511 -1.2
-70.803061 42.892450 -1.8
-70.803369 42.892269 -0.9
-70.804011 42.891531 -5.2
-70.804439 42.890900 -4.9
-70.802561 42.890769 -3.7
-70.801661 42.890131 -3.4
-70.800119 42.890569 -4.3
-70.799389 42.890481 -9.4
-70.799789 42.890450 -3.7
-70.798361 42.890989 -4.9
-70.798150 42.890989 -3.0
-70.798150 42.893019 -5.5
-70.798419 42.893450 -7.0
-70.799239 42.894389 -6.7
-70.799989 42.895139 -6.7
-70.798100 42.895161 -6.7
-70.798161 42.894689 -4.0
-70.797381 42.894289 -9.8
-70.796761 42.894300 -8.2
-70.797331 42.893950 -9.8
-70.796889 42.893981 -4.3
-70.796269 42.894011 -8.8
-70.795881 42.895550 -8.8
-70.795489 42.894719 -11.9
-70.795481 42.894000 -13.4
-70.797231 42.893361 -8.8
-70.797069 42.893081 -8.5
-70.792839 42.899019 -4.9
-70.792981 42.898731 -4.0
-70.792819 42.898381 -7.3
-70.793031 42.898139 -4.6
-70.793111 42.897789 -9.4
-70.793061 42.897311 -7.6
-70.793761 42.896831 -12.5
-70.794150 42.896739 -10.4
-70.794519 42.896339 -12.2
-70.793219 42.896350 -13.7
-70.792561 42.896381 -7.9
-70.794031 42.895550 -11.6
-70.792761 42.895000 -11.6
-70.794219 42.895019 -12.5
-70.794900 42.894700 -11.3
-70.794250 42.894150 -11.9
-70.793950 42.893969 -11.3
-70.793950 42.893519 -15.2
-70.795661 42.893350 -6.7
-70.795869 42.893069 -8.8
-70.794861 42.892769 -7.0
-70.793861 42.892539 -13.4
-70.795050 42.892450 -5.5
-70.795169 42.892089 -5.5
-70.795389 42.891911 -5.8
-70.796411 42.891619 -9.8
-70.794850 42.891300 -10.4
-70.795311 42.891300 -11.3
-70.795969 42.891331 -6.7
-70.795131 42.891000 -13.7
-70.795719 42.890989 -12.5
-70.796381 42.891011 -6.7
-70.796881 42.890969 -10.4
-70.796539 42.889619 -13.7
-70.796161 42.889031 -13.7
-70.797139 42.887089 -13.7
-70.797081 42.886419 -13.7
-70.795769 42.886439 -14.9
-70.797519 42.883039 -14.9
-70.797989 42.882519 -14.9
-70.797911 42.881319 -11.9
-70.797981 42.880900 -10.1
-70.797619 42.880869 -14.0
-70.797139 42.880861 -11.0
-70.796619 42.880861 -16.5
-70.799381 42.880431 -12.5
-70.799000 42.880411 -10.1
-70.797950 42.880431 -10.4
-70.797281 42.880419 -15.8
-70.796650 42.880431 -16.5
-70.799461 42.880050 -8.5
-70.798800 42.880019 -11.3
-70.796481 42.877519 -15.2
-70.795150 42.878950 -18.9
-70.795139 42.878450 -8.8
-70.794661 42.878350 -7.3
-70.794389 42.878589 -11.0
-70.795161 42.878061 -11.6
-70.795050 42.877731 -9.8
-70.794539 42.878039 -15.5
-70.794111 42.878100 -18.6
-70.793389 42.878200 -16.8
-70.793011 42.878739 -21.0
-70.792589 42.878739 -18.3
-70.792439 42.879050 -17.4
-70.794219 42.876400 -17.7
-70.792250 42.877469 -17.7
-70.792289 42.876989 -17.7
-70.792200 42.876439 -17.7
-70.793389 42.879969 -15.2
-70.792981 42.879989 -10.7
-70.791461 42.881319 -11.3
-70.791600 42.879131 -15.8
-70.792069 42.878300 -20.7
-70.792219 42.878711 -19.8
-70.790039 42.880861 -18.0
-70.789339 42.880031 -21.3
-70.797600 42.878489 -17.1
-70.798719 42.875139 -12.2
-70.796819 42.875769 -16.2
-70.791289 42.899631 -13.1
-70.791989 42.898881 -12.5
-70.791881 42.898661 -7.6
-70.791781 42.898419 -5.8
-70.791911 42.898139 -7.0
-70.791989 42.897919 -10.7
-70.792419 42.897800 -7.6
-70.792600 42.891961 -16.8
-70.793581 42.886169 -16.8
-70.792269 42.884369 -18.6
-70.791550 42.884369 -19.2
-70.789600 42.885731 -19.5
-70.789861 42.886031 -19.5
-70.790119 42.886331 -16.5
-70.789369 42.886739 -21.3
-70.789419 42.887400 -20.7
-70.791361 42.890861 -5.5
-70.790869 42.890900 -9.8
-70.789911 42.891111 -10.4
-70.790711 42.892039 -13.7
-70.790131 42.892069 -11.3
-70.791350 42.890231 -11.6
-70.788461 42.890031 -13.7
-70.790111 42.892989 -11.6
-70.790150 42.892561 -14.0
-70.788250 42.892881 -14.0
-70.790769 42.894089 -4.9
-70.790439 42.893911 -6.4
-70.790361 42.894319 -8.2
-70.790731 42.894369 -14.3
-70.789100 42.895039 -17.4
-70.789639 42.894369 -13.1
-70.789219 42.894389 -15.5
-70.789239 42.893911 -12.5
-70.789061 42.893469 -13.7
-70.787881 42.893500 -14.9
-70.786800 42.893461 -17.1
-70.785539 42.893969 -21.3
-70.786700 42.893969 -16.2
-70.787339 42.893961 -14.9
-70.783719 42.895100 -21.6
-70.784219 42.895119 -19.2
-70.785481 42.895119 -18.0
-70.786489 42.894789 -11.9
-70.787519 42.895531 -12.2
-70.787081 42.895761 -8.8
-70.787869 42.895739 -12.5
-70.788081 42.896300 -12.8
-70.788550 42.896019 -11.9
-70.786400 42.896581 -15.5
-70.786400 42.896919 -10.1
-70.787869 42.896861 -9.8
-70.788400 42.896939 -13.4
-70.787681 42.897389 -13.1
-70.787500 42.897661 -12.8
-70.788039 42.898119 -10.7
-70.788400 42.897950 -13.1
-70.786839 42.898419 -13.7
-70.786269 42.898061 -17.1
-70.786431 42.897289 -15.8
-70.785881 42.899189 -17.4
-70.785711 42.895689 -13.4
-70.790700 42.898681 -7.0
-70.790811 42.897881 -5.8
-70.790500 42.897239 -5.5
-70.789761 42.898661 -5.8
-70.789650 42.898450 -5.8
-70.788931 42.898689 -11.0
-70.788600 42.898489 -14.9
-70.788731 42.898200 -15.2
-70.789050 42.898131 -13.7
-70.788911 42.897939 -16.2
-70.789319 42.897881 -13.7
-70.791231 42.897769 -7.6
-70.790431 42.898150 -4.6
-70.779889 42.899639 -13.4
-70.780489 42.899650 -13.1
-70.781019 42.899639 -18.6
-70.781389 42.899650 -21.3
-70.781761 42.899611 -18.0
-70.783281 42.898969 -18.3
-70.782719 42.898939 -18.6
-70.782039 42.899011 -16.5
-70.781411 42.899019 -14.6
-70.779500 42.898881 -16.8
-70.780111 42.898811 -13.7
-70.780689 42.898800 -12.5
-70.781269 42.898711 -13.1
-70.782289 42.898489 -18.6
-70.782781 42.898381 -17.4
-70.783511 42.898231 -22.3
-70.779300 42.898381 -16.5
-70.781081 42.898339 -11.9
-70.780500 42.897881 -15.8
-70.781111 42.897911 -16.8
-70.780689 42.897511 -13.4
-70.781419 42.897511 -18.6
-70.782011 42.897500 -19.8
-70.780939 42.896900 -12.2
-70.780800 42.896681 -18.3
-70.780181 42.896650 -14.3
-70.781439 42.896250 -20.7
-70.780581 42.895550 -18.6
-70.779231 42.894850 -13.4
-70.779989 42.894861 -17.7
-70.778789 42.894089 -15.8
-70.780581 42.893850 -13.7
-70.781061 42.893331 -13.1
-70.779981 42.892939 -14.0
-70.781081 42.893031 -14.0
-70.782631 42.893961 -19.5
-70.780619 42.892300 -15.8
-70.781189 42.892311 -21.9
-70.781769 42.892369 -17.1
-70.783869 42.891519 -19.2
-70.784711 42.891069 -15.8
-70.784231 42.891081 -18.0
-70.783619 42.890181 -18.9
-70.784289 42.890169 -17.1
-70.782100 42.889619 -15.8
-70.783611 42.889850 -16.5
-70.784131 42.889900 -19.8
-70.782350 42.889181 -13.1
-70.783169 42.889119 -20.7
-70.783839 42.889331 -19.2
-70.782750 42.888661 -20.4
-70.785139 42.889339 -17.7
-70.783089 42.887831 -18.6
-70.783700 42.887819 -17.1
-70.784181 42.887811 -14.3
-70.783381 42.888061 -16.8
-70.784200 42.887519 -18.0
-70.782869 42.887231 -16.8
-70.782431 42.887150 -14.9
-70.783311 42.887000 -19.8
-70.783789 42.887019 -16.5
-70.786250 42.888189 -20.4
-70.786100 42.887550 -16.8
-70.785850 42.887081 -13.1
-70.787589 42.887439 -17.7
-70.787261 42.887139 -16.5
-70.786811 42.887111 -14.9
-70.786369 42.886539 -18.3
-70.786669 42.886311 -14.9
-70.787200 42.886619 -11.6
-70.787669 42.886639 -13.7
-70.787300 42.886339 -11.0
-70.787981 42.886339 -16.8
-70.787211 42.886050 -15.2
-70.787731 42.886089 -12.2
-70.788131 42.886089 -17.7
-70.788539 42.886081 -21.9
-70.786981 42.885761 -19.8
-70.787431 42.885750 -18.9
-70.787961 42.885750 -14.0
-70.788469 42.885739 -17.7
-70.787011 42.885489 -18.9
-70.787300 42.884481 -22.3
-70.787850 42.884439 -22.3
-70.788419 42.884450 -22.3
-70.788081 42.884181 -22.3
-70.787281 42.884131 -11.3
-70.785950 42.884019 -12.5
-70.785781 42.883739 -15.2
-70.785350 42.883739 -12.5
-70.785431 42.884431 -11.6
-70.785561 42.885019 -15.8
-70.786031 42.885011 -19.5
-70.784281 42.885539 -12.2
-70.784011 42.884939 -20.1
-70.783150 42.884900 -15.8
-70.782861 42.884400 -21.0
-70.782739 42.883700 -19.2
-70.782200 42.883769 -14.6
-70.789219 42.913100 -9.8
-70.789669 42.912531 -9.8
-70.789689 42.912219 -9.8
-70.790119 42.911411 -9.8
-70.783100 42.910739 -17.7
-70.782539 42.910769 -18.3
-70.782531 42.913011 -17.1
-70.780781 42.915231 -15.5
-70.782661 42.916311 -13.7
-70.783081 42.916539 -13.4
-70.783561 42.916931 -13.1
-70.774300 42.916281 -20.7
-70.773989 42.915611 -19.5
-70.775169 42.915619 -19.5
-70.774100 42.914881 -21.0
-70.774669 42.914911 -20.4
-70.775331 42.914900 -20.4
-70.775981 42.914861 -19.8
-70.776950 42.914250 -19.5
-70.779169 42.906561 -16.5
-70.780989 42.906531 -15.8
-70.781589 42.906519 -17.1
-70.779100 42.907300 -14.6
-70.779881 42.905931 -14.0
-70.780481 42.905950 -13.1
-70.781039 42.905950 -12.2
-70.781769 42.905939 -12.5
-70.780139 42.905419 -13.4
-70.780819 42.905231 -11.3
-70.781150 42.905400 -10.4
-70.781700 42.905369 -13.1
-70.781500 42.904981 -12.8
-70.781481 42.904431 -14.9
-70.781719 42.904200 -10.7
-70.785481 42.903619 -13.4
-70.780331 42.900750 -22.9
-70.783569 42.903181 -14.3
-70.784019 42.902711 -17.4
-70.780619 42.904039 -19.8
-70.780861 42.903511 -16.2
-70.780850 42.902219 -13.7
-70.780181 42.902219 -16.2
-70.782481 42.901469 -16.8
-70.781811 42.901489 -14.0
-70.781761 42.901139 -13.7
-70.781319 42.900619 -20.4
-70.779519 42.900589 -18.6
-70.785250 42.903389 -13.4
-70.783069 42.903481 -9.4
-70.782750 42.903700 -10.1
-70.782919 42.904119 -10.1
-70.783589 42.904081 -10.7
-70.783569 42.904731 -10.7
-70.784769 42.905069 -18.0
-70.783319 42.905081 -13.1
-70.782900 42.905050 -11.9
-70.782950 42.905350 -11.0
-70.782811 42.905969 -14.9
-70.790719 42.923589 -4.0
-70.791319 42.923589 -3.7
-70.791900 42.923511 -2.7
-70.792461 42.923531 -4.0
-70.791981 42.923139 -2.4
-70.792239 42.923069 -2.7
-70.792511 42.923119 -4.0
-70.792261 42.922581 -3.0
-70.792731 42.922569 -3.7
-70.793061 42.922289 -3.7
-70.792500 42.922281 -4.3
-70.788419 42.923150 -5.5
-70.788231 42.922919 -4.9
-70.788439 42.923550 -8.8
-70.788200 42.923769 -10.4
-70.787531 42.923161 -7.9
-70.786950 42.923111 -6.7
-70.786369 42.923139 -6.1
-70.786311 42.923550 -9.1
-70.783539 42.929419 -9.1
-70.783539 42.929181 -10.4
-70.783400 42.928739 -8.2
-70.783550 42.928250 -9.8
-70.785000 42.927369 -8.8
-70.781461 42.930569 -9.1
-70.781769 42.930361 -10.1
-70.780519 42.930831 -8.2
-70.780900 42.930550 -8.2
-70.780889 42.930219 -8.2
-70.781950 42.929519 -8.8
-70.782369 42.929419 -7.6
-70.782961 42.929400 -8.2
-70.782481 42.919169 -14.9
-70.780731 42.916919 -14.6
-70.781111 42.917261 -16.2
-70.777611 42.924389 -16.2
-70.777031 42.924400 -15.8
-70.777061 42.925311 -15.8
-70.778119 42.925789 -14.6
-70.778700 42.925719 -13.7
-70.779269 42.925761 -13.7
-70.772211 42.926761 -18.9
-70.774011 42.926861 -18.6
-70.775689 42.926939 -16.8
-70.776219 42.926950 -14.0
-70.776831 42.926981 -14.9
-70.777331 42.927019 -15.2
-70.778019 42.927011 -14.9
-70.772800 42.927561 -18.9
-70.774369 42.927689 -15.8
-70.775181 42.927639 -15.8
-70.775800 42.927639 -16.2
-70.776350 42.927689 -15.8
-70.774839 42.928631 -15.8
-70.771839 42.929189 -16.8
-70.772311 42.929189 -15.8
-70.772981 42.929200 -14.9
-70.773550 42.929250 -15.8
-70.774700 42.929300 -17.1
-70.776989 42.929369 -15.8
-70.778111 42.929400 -14.3
-70.779381 42.929369 -13.1
-70.780600 42.929369 -12.5
-70.781139 42.929381 -10.7
-70.779611 42.929911 -13.4
-70.781211 42.929989 -7.9
-70.779189 42.930469 -13.4
-70.778750 42.930461 -14.6
-70.768861 42.929269 -20.1
-70.770500 42.929139 -19.2
-70.769311 42.932139 -19.8
-70.776011 42.931231 -16.8
-70.786139 42.935781 -7.6
-70.786400 42.936119 -7.9
-70.786300 42.935381 -7.9
-70.789919 42.935839 -5.5
-70.787750 42.935831 -6.7
-70.788661 42.936800 -5.5
-70.788350 42.936811 -4.6
-70.788011 42.936789 -5.5
-70.788750 42.935389 -4.0
-70.784839 42.939750 -6.7
-70.784161 42.939861 -6.7
-70.784469 42.940019 -4.6
-70.784769 42.939989 -5.2
-70.784231 42.939011 -4.6
-70.783600 42.939289 -7.0
-70.782369 42.940481 -5.5
-70.782831 42.940781 -9.4
-70.781939 42.944739 -2.4
-70.782261 42.944700 -1.8
-70.770250 42.945311 -14.6
-70.770769 42.945289 -14.3
-70.770881 42.944831 -14.0
-70.770200 42.944539 -15.5
-70.770911 42.944531 -14.3
-70.771900 42.942039 -14.0
-70.772889 42.942061 -14.9
-70.773431 42.941989 -13.4
-70.774011 42.942011 -14.0
-70.774489 42.942031 -13.1
-70.770719 42.941289 -13.7
-70.771550 42.941289 -10.1
-70.772000 42.941281 -12.8
-70.772469 42.941289 -11.9
-70.773189 42.941311 -11.6
-70.773761 42.941289 -13.4
-70.768489 42.940969 -18.3
-70.769631 42.941000 -14.9
-70.770219 42.940989 -14.6
-70.771400 42.941039 -11.6
-70.771961 42.941011 -12.2
-70.772489 42.941000 -11.9
-70.773089 42.941000 -13.1
-70.773631 42.941019 -13.7
-70.769400 42.940339 -16.5
-70.770819 42.940611 -14.0
-70.770839 42.940231 -13.7
-70.771689 42.940350 -14.6
-70.772119 42.940331 -14.3
-70.772650 42.940319 -14.9
-70.773189 42.940289 -14.9
-70.773661 42.940300 -14.9
-70.769650 42.939681 -16.2
-70.770069 42.939681 -14.6
-70.770589 42.939731 -14.6
-70.770931 42.939881 -14.3
-70.771361 42.939750 -14.9
-70.771900 42.939769 -16.2
-70.772339 42.939781 -16.2
-70.771700 42.939281 -16.8
-70.770761 42.938281 -15.8
-70.771389 42.938231 -13.7
-70.771839 42.938211 -12.5
-70.773100 42.938211 -15.2
-70.773681 42.938189 -12.2
-70.774339 42.938139 -15.8
-70.766989 42.937400 -20.1
-70.769419 42.937481 -18.9
-70.770611 42.937469 -16.5
-70.771019 42.937450 -14.3
-70.771789 42.937450 -16.8
-70.772289 42.937469 -15.2
-70.772689 42.937031 -16.2
-70.772881 42.935531 -16.5
-70.774881 42.935569 -16.8
-70.774281 42.935539 -15.8
-70.774450 42.934889 -14.9
-70.774161 42.934031 -16.8
-70.775261 42.934039 -15.2
-70.775839 42.934039 -14.9
-70.776350 42.934061 -14.3
-70.765419 42.945550 -15.8
-70.765981 42.945539 -13.1
-70.766669 42.945561 -13.1
-70.767050 42.945569 -14.9
-70.766600 42.945150 -11.0
-70.767089 42.945139 -11.9
-70.767581 42.945139 -13.1
-70.766169 42.945100 -13.4
-70.765650 42.945089 -17.4
-70.765819 42.944561 -17.7
-70.766239 42.944589 -15.2
-70.766731 42.944561 -13.4
-70.767289 42.944600 -12.2
-70.767739 42.944589 -13.1
-70.768400 42.944589 -14.3
-70.765639 42.944119 -18.6
-70.766200 42.944069 -16.5
-70.766631 42.944039 -15.2
-70.767469 42.944031 -14.3
-70.768211 42.943989 -16.5
-70.767531 42.943431 -16.5
-70.768069 42.943400 -18.9
-70.767689 42.943061 -18.9
-70.767161 42.943050 -18.0
-70.767850 42.942469 -18.9
-70.767300 42.942481 -16.8
-70.758911 42.945081 -19.8
-70.759489 42.945119 -22.6
-70.759881 42.945161 -20.7
-70.759911 42.944869 -18.9
-70.759781 42.944239 -18.9
-70.759269 42.944219 -18.9
-70.760769 42.944231 -22.3
-70.763969 42.944150 -19.2
-70.764950 42.945950 -19.2
-70.803161 42.911311 -4.9
-70.765661 42.947019 -18.6
-70.766581 42.945939 -16.5
-70.779961 42.945711 -8.5
-70.782311 42.943831 -3.7
-70.771169 42.942411 -14.3
-70.777739 42.941261 -13.7
-70.778911 42.941261 -12.8
-70.781831 42.941939 -7.0
-70.776800 42.939939 -13.7
-70.777981 42.939211 -13.4
-70.771631 42.937839 -15.2
-70.769011 42.936989 -17.7
-70.784211 42.943719 -4.3
-70.761919 42.939350 -22.3
-70.782239 42.940250 -6.1
-70.785461 42.941769 -4.3
-70.784850 42.943211 -3.7
-70.784989 42.942919 -3.7
-70.784289 42.942439 -6.1
-70.783261 42.942631 -4.3
-70.783089 42.942419 -4.6
-70.783131 42.942200 -6.1
-70.786931 42.940811 -4.0
-70.786050 42.940569 -5.8
-70.777161 42.937050 -13.7
-70.784061 42.940169 -7.6
-70.786661 42.939361 -5.5
-70.786950 42.939319 -5.5
-70.787519 42.939311 -7.0
-70.786850 42.938469 -6.7
-70.783650 42.939039 -5.5
-70.784539 42.938989 -5.5
-70.784419 42.938750 -5.2
-70.784861 42.938689 -7.3
-70.782231 42.937000 -10.1
-70.785419 42.937439 -7.0
-70.788711 42.939289 -5.5
-70.788461 42.938500 -6.1
-70.788261 42.937100 -5.5
-70.791450 42.940561 -2.4
-70.792011 42.939461 -2.4
-70.790950 42.939461 -4.3
-70.791300 42.938631 -4.3
-70.791900 42.937681 -3.7
-70.790889 42.937700 -5.2
-70.792269 42.937339 -2.4
-70.792150 42.936739 -3.7
-70.780289 42.933981 -12.2
-70.794611 42.937339 0.6
-70.783281 42.946319 -4.6
-70.782911 42.946319 -3.7
-70.779739 42.931911 -11.3
-70.780111 42.931661 -11.3
-70.779339 42.930811 -11.3
-70.777819 42.931600 -11.6
-70.778550 42.931631 -12.2
-70.781969 42.931650 -11.9
-70.782700 42.931319 -11.6
-70.781439 42.929111 -10.4
-70.780939 42.929119 -12.8
-70.783181 42.928519 -8.2
-70.780681 42.928300 -13.7
-70.779861 42.928700 -13.7
-70.778850 42.929061 -14.9
-70.779139 42.931200 -10.7
-70.777739 42.930381 -15.5
-70.777431 42.929919 -15.2
-70.777611 42.929381 -15.2
-70.777669 42.928681 -15.8
-70.779719 42.930500 -11.3
-70.785400 42.925981 -10.1
-70.784889 42.926031 -8.8
-70.784461 42.926000 -9.4
-70.781150 42.926181 -12.8
-70.780339 42.925781 -14.6
-70.780669 42.924750 -13.4
-70.778139 42.925300 -14.9
-70.777800 42.926189 -14.0
-70.773250 42.926189 -18.0
-70.777989 42.923681 -17.7
-70.781881 42.923069 -14.3
-70.784461 42.923519 -12.5
-70.787069 42.922569 -9.4
-70.788839 42.922661 -6.1
-70.790431 42.923811 -4.0
-70.791339 42.923800 -6.4
-70.792189 42.923789 -6.7
-70.797369 42.922469 -3.7
-70.794139 42.921769 -4.3
-70.792311 42.920969 -6.4
-70.792989 42.920411 -4.3
-70.791450 42.920411 -5.5
-70.790469 42.922961 -4.6
-70.791250 42.922589 -6.1
-70.792019 42.922589 -2.4
-70.790950 42.919269 -5.5
-70.792100 42.919200 -4.9
-70.792669 42.917061 -2.1
-70.792561 42.916819 -2.1
-70.792961 42.916569 -0.9
-70.793400 42.915369 -6.4
-70.783000 42.918411 -14.9
-70.783600 42.917789 -14.9
-70.784581 42.917761 -11.3
-70.784561 42.917381 -12.5
-70.788950 42.915511 -7.3
-70.789500 42.914450 -7.9
-70.787819 42.914161 -9.8
-70.783639 42.913800 -14.9
-70.778469 42.914261 -20.7
-70.797469 42.916450 -1.8
-70.797539 42.915381 -6.1
-70.802100 42.915311 -3.4
-70.805300 42.914869 -0.9
-70.805731 42.914600 -0.9
-70.797981 42.911669 -6.4
-70.803069 42.908750 -5.5
-70.796911 42.915369 -4.0
-70.808311 42.907061 -2.1
-70.805200 42.902689 -4.0
-70.810161 42.898150 -0.6
-70.809589 42.898111 -0.6
-70.801711 42.898931 -4.6
-70.807961 42.894300 -0.9
-70.798031 42.900850 -11.3
-70.796789 42.900831 -11.3
-70.795619 42.901319 -11.3
-70.791419 42.903250 -11.6
-70.796150 42.900289 -9.8
-70.793419 42.899711 -2.4
-70.810719 42.906950 1.2
-70.810700 42.906369 1.2
-70.809950 42.902161 -0.2
-70.781150 42.901100 -18.9
-70.785811 42.899961 -17.7
-70.788611 42.898919 -11.9
-70.788089 42.898400 -13.4
-70.793669 42.897600 -3.7
-70.790261 42.896031 -16.8
-70.789700 42.896050 -17.4
-70.788931 42.895519 -11.0
-70.788661 42.895269 -15.8
-70.788669 42.894850 -12.5
-70.788669 42.894411 -12.2
-70.787031 42.895169 -7.9
-70.786969 42.895531 -11.6
-70.785831 42.897219 -16.2
-70.784331 42.898481 -15.5
-70.784681 42.898139 -20.1
-70.784689 42.897000 -21.6
-70.785611 42.895981 -19.8
-70.785100 42.895650 -15.8
-70.784269 42.895950 -21.6
-70.781650 42.894689 -16.8
-70.780669 42.894850 -18.6
-70.785961 42.893000 -21.3
-70.781669 42.891961 -18.3
-70.781819 42.890019 -21.0
-70.796119 42.885519 -14.9
-70.797419 42.885481 -12.5
-70.797939 42.885511 -13.7
-70.796450 42.884831 -14.9
-70.790231 42.899511 -9.8
-70.790850 42.898969 -7.6
-70.791931 42.899389 -10.1
-70.790511 42.898431 -5.5
-70.790039 42.898150 -6.7
-70.789550 42.898219 -3.0
-70.790319 42.897700 -4.3
-70.790281 42.897450 -4.6
-70.789919 42.897219 -6.1
-70.789361 42.897239 -14.6
-70.792289 42.894969 -14.9
-70.791039 42.894569 -17.1
-70.793819 42.893031 -13.7
-70.792989 42.893050 -12.5
-70.796050 42.898819 -3.0
-70.796639 42.898400 -3.0
-70.796519 42.898181 -1.8
-70.798139 42.896469 -3.0
-70.796539 42.894769 -4.6
-70.793219 42.890781 -17.1
-70.792200 42.890311 -16.2
-70.792261 42.889869 -15.8
-70.791681 42.891161 -9.8
-70.791069 42.891619 -13.1
-70.790569 42.890250 -10.7
-70.791061 42.889781 -16.2
-70.789981 42.894531 -17.4
-70.789950 42.894061 -11.3
-70.810131 42.893081 -0.9
-70.809689 42.891969 0.2
-70.806289 42.893669 -1.5
-70.806081 42.892111 -0.6
-70.804461 42.893639 -1.5
-70.804031 42.893850 -1.5
-70.803681 42.892081 -3.4
-70.802119 42.894831 -4.6
-70.802450 42.894869 -5.2
-70.800750 42.895169 -4.3
-70.800069 42.893911 -4.6
-70.800789 42.893331 -2.7
-70.780900 42.884831 -15.8
-70.781450 42.883869 -21.9
-70.782081 42.885569 -19.2
-70.782719 42.884911 -14.9
-70.782100 42.884389 -17.4
-70.783950 42.885839 -20.4
-70.785289 42.886461 -20.7
-70.785081 42.884950 -13.4
-70.784781 42.884769 -12.2
-70.786469 42.885789 -17.4
-70.787139 42.884719 -22.3
-70.788489 42.884739 -20.1
-70.786619 42.883839 -12.8
-70.784300 42.883931 -12.5
-70.783550 42.882489 -19.5
-70.786019 42.882539 -19.2
-70.789269 42.883031 -20.7
-70.785900 42.880831 -21.6
-70.788039 42.879969 -20.1
-70.789519 42.879269 -21.3
-70.785969 42.876850 -14.0
-70.794331 42.880761 -19.5
-70.796969 42.881350 -12.5
-70.795489 42.883111 -16.2
-70.800089 42.881911 -13.4
-70.800869 42.881631 -12.8
-70.802439 42.879769 -11.3
-70.805039 42.881161 -10.7
-70.784019 42.906461 -19.8
-70.783039 42.905650 -13.7
-70.780969 42.904731 -16.5
-70.784211 42.905081 -15.5
-70.784339 42.904589 -12.2
-70.784661 42.904069 -10.7
-70.811300 42.895769 -0.9
-70.811061 42.895289 -0.9
-70.811319 42.895019 -1.5
-70.811189 42.893911 -2.4
-70.811889 42.895031 -1.8
-70.811911 42.894739 -1.5
-70.812311 42.895750 0.0
-70.812431 42.895981 0.0
-70.812131 42.896261 0.0
-70.812219 42.895981 -0.3
-70.812911 42.894089 -1.8
-70.812750 42.893800 -0.6
-70.813519 42.896031 0.0
-70.813989 42.896019 -0.3
-70.814161 42.895689 -2.4
-70.814389 42.895589 -2.4
-70.814431 42.895250 -4.0
-70.815039 42.896561 0.0
-70.813119 42.893719 0.6
-70.815361 42.895819 -4.9
-70.815700 42.895861 -5.5
-70.815931 42.895619 -4.3
-70.816311 42.895469 -1.2
-70.817350 42.895669 -1.8
-70.817500 42.895969 -2.4
-70.816811 42.896039 -5.8
-70.816811 42.896350 -6.1
-70.816611 42.896581 -1.8
-70.816639 42.896869 0.0
-70.815831 42.896139 -1.2
-70.816589 42.895519 -1.5
-70.818289 42.897000 -0.9
-70.818100 42.896881 -0.9
-70.818111 42.896600 -2.4
-70.818781 42.896150 -0.9
-70.818981 42.896411 -0.6
