-70.815989 42.725974 0.3
-70.807313 42.725976 -1.2
-70.811997 42.725979 0.6
-70.815087 42.725993 -1.5
-70.812664 42.726007 0.9
-70.809902 42.726018 -4.3
-70.806216 42.726021 -0.2
-70.807908 42.726024 -1.8
-70.802805 42.726029 -0.9
-70.808419 42.726115 -1.8
-70.805513 42.726129 0.3
-70.804480 42.726146 0.2
-70.809544 42.726160 -4.3
-70.804980 42.726179 0.6
-70.807486 42.726190 -1.8
-70.806827 42.726196 -1.2
-70.810272 42.726221 -3.7
-70.809852 42.726224 -4.3
-70.803588 42.726268 -0.6
-70.800505 42.726274 0.3
-70.810616 42.726290 -3.7
-70.815364 42.726321 -1.2
-70.809216 42.726326 -3.7
-70.811916 42.726349 0.3
-70.811094 42.726351 -3.4
-70.801594 42.726360 -1.2
-70.815842 42.726379 -2.7
-70.807758 42.726382 -1.8
-70.809858 42.726429 -3.7
-70.802241 42.726457 -1.2
-70.803569 42.726465 -0.3
-70.803175 42.726490 -0.6
-70.806263 42.726493 -0.9
-70.800516 42.726510 0.3
-70.808802 42.726510 -2.4
-70.810608 42.726518 -3.0
-70.802722 42.726529 -1.2
-70.808358 42.726543 -1.8
-70.805469 42.726579 -0.2
-70.810152 42.726587 -3.4
-70.804963 42.726601 0.3
-70.807472 42.726604 -1.8
-70.807233 42.726624 -2.1
-70.811086 42.726626 -3.4
-70.809316 42.726632 -3.7
-70.807880 42.726651 -2.4
-70.815553 42.726657 -1.5
-70.803602 42.726671 -0.6
-70.804433 42.726696 0.0
-70.805663 42.726701 -1.2
-70.801580 42.726715 -0.9
-70.810544 42.726718 -3.7
-70.800491 42.726740 0.3
-70.808397 42.726740 -2.4
-70.809838 42.726757 -3.7
-70.806083 42.726793 -2.4
-70.811864 42.726818 0.3
-70.809297 42.726854 -3.7
-70.811044 42.726857 -2.4
-70.806633 42.726862 -2.4
-70.805102 42.726874 -0.9
-70.808016 42.726885 -2.1
-70.807491 42.726901 -2.1
-70.810505 42.726910 -2.7
-70.803108 42.726918 -0.9
-70.815845 42.726957 -2.4
-70.805450 42.726960 -2.1
-70.802219 42.726962 -1.5
-70.800452 42.726987 0.3
-70.804838 42.727051 -1.8
-70.807611 42.727062 -1.8
-70.808411 42.727071 -1.8
-70.802627 42.727076 -1.2
-70.809280 42.727082 -3.4
-70.810491 42.727082 -3.0
-70.803575 42.727085 -0.6
-70.801638 42.727124 -1.2
-70.804383 42.727135 -0.6
-70.811806 42.727171 0.3
-70.806100 42.727182 -2.4
-70.806661 42.727193 -2.4
-70.809730 42.727235 -2.7
-70.807227 42.727246 -1.8
-70.800463 42.727251 0.6
-70.808419 42.727285 -2.4
-70.800913 42.727287 -0.3
-70.807863 42.727293 -1.8
-70.803875 42.727296 -1.2
-70.809227 42.727318 -3.7
-70.803027 42.727360 -1.2
-70.811044 42.727371 -2.1
-70.806877 42.727396 -1.8
-70.805563 42.727404 -2.7
-70.802213 42.727429 -1.5
-70.803519 42.727468 -1.8
-70.810483 42.727476 -2.1
-70.803266 42.727479 -1.5
-70.805358 42.727482 -2.7
-70.811787 42.727493 0.3
-70.804805 42.727499 -2.7
-70.800386 42.727512 0.3
-70.801561 42.727515 -1.5
-70.807922 42.727532 -0.9
-70.802511 42.727546 -1.8
-70.806438 42.727562 -1.8
-70.807386 42.727599 -0.9
-70.805033 42.727607 -2.4
-70.808444 42.727651 -3.4
-70.804322 42.727657 -2.7
-70.806580 42.727660 -1.8
-70.800905 42.727665 -0.3
-70.809700 42.727687 -2.1
-70.802755 42.727701 -1.5
-70.800369 42.727757 0.3
-70.806072 42.727757 -1.8
-70.807861 42.727765 -1.5
-70.802994 42.727815 -2.1
-70.809158 42.727821 -2.7
-70.804463 42.727843 -2.1
-70.810375 42.727846 -2.1
-70.804808 42.727857 -2.1
-70.811709 42.727860 0.2
-70.803461 42.727862 -2.7
-70.807372 42.727879 -0.6
-70.810961 42.727887 -1.8
-70.805344 42.727910 -2.1
-70.801580 42.727929 -2.1
-70.802213 42.727954 -2.1
-70.805700 42.727965 -1.5
-70.800863 42.727990 -0.6
-70.800291 42.728040 0.3
-70.807330 42.728051 -0.9
-70.808525 42.728051 -3.0
-70.803455 42.728062 -3.0
-70.805280 42.728096 -1.5
-70.804288 42.728099 -2.1
-70.803883 42.728104 -2.1
-70.805955 42.728118 -1.2
-70.806583 42.728126 -0.9
-70.802452 42.728129 -3.0
-70.801800 42.728143 -2.1
-70.810975 42.728143 -1.2
-70.802908 42.728149 -3.0
-70.809650 42.728187 -1.2
-70.810291 42.728190 -1.5
-70.807872 42.728201 -2.7
-70.803716 42.728215 -2.1
-70.804655 42.728265 -1.5
-70.809158 42.728265 -2.1
-70.804897 42.728268 -1.5
-70.811598 42.728282 0.0
-70.801550 42.728296 -2.4
-70.800230 42.728310 0.2
-70.803297 42.728340 -2.4
-70.805238 42.728343 -1.2
-70.800772 42.728346 -0.6
-70.801200 42.728365 -1.2
-70.810953 42.728382 -1.8
-70.809666 42.728396 -1.2
-70.804422 42.728418 -1.5
-70.802155 42.728440 -3.0
-70.808572 42.728471 -3.0
-70.805958 42.728487 -0.3
-70.807311 42.728518 -2.1
-70.804172 42.728554 -1.5
-70.806602 42.728557 -0.6
-70.810163 42.728560 -1.5
-70.802755 42.728565 -2.7
-70.800744 42.728590 -0.6
-70.810987 42.728610 -0.9
-70.803502 42.728624 -2.1
-70.803900 42.728635 -1.5
-70.811512 42.728640 0.0
-70.800163 42.728657 0.2
-70.807825 42.728657 -3.0
-70.809694 42.728657 -1.5
-70.804625 42.728668 -0.6
-70.809008 42.728726 -1.2
-70.801513 42.728740 -3.4
-70.805261 42.728754 -0.3
-70.802252 42.728779 -3.4
-70.802727 42.728779 -2.7
-70.808588 42.728810 -1.8
-70.803491 42.728824 -1.2
-70.810967 42.728840 -1.2
-70.806016 42.728899 -0.9
-70.809627 42.728921 -0.6
-70.804583 42.728929 -0.3
-70.810183 42.728957 -0.9
-70.800100 42.728965 0.3
-70.802250 42.728968 -3.7
-70.801761 42.728976 -3.4
-70.802691 42.728976 -3.4
-70.807205 42.728979 -2.7
-70.806500 42.728985 -1.5
-70.811476 42.728987 -0.2
-70.803025 42.729010 -0.9
-70.803491 42.729018 -0.6
-70.808555 42.729040 -2.4
-70.804175 42.729051 -0.6
-70.801511 42.729085 -4.0
-70.804611 42.729085 -0.6
-70.800633 42.729090 -1.8
-70.807844 42.729135 -2.7
-70.805988 42.729157 -0.6
-70.809008 42.729168 -0.9
-70.809625 42.729179 -1.2
-70.800011 42.729193 0.3
-70.807225 42.729193 -2.1
-70.810141 42.729193 -0.6
-70.801286 42.729196 -3.4
-70.802197 42.729196 -3.4
-70.802550 42.729212 -1.5
-70.805266 42.729226 -0.6
-70.808602 42.729265 -1.2
-70.811667 42.729285 -0.6
-70.810926 42.729315 -0.9
-70.808930 42.729362 -0.3
-70.802769 42.729365 -0.3
-70.810080 42.729371 -1.2
-70.805922 42.729374 -0.9
-70.802180 42.729387 -3.7
-70.809677 42.729387 -0.6
-70.811392 42.729390 -0.2
-70.800811 42.729410 -2.7
-70.803516 42.729418 -0.6
-70.807200 42.729426 -2.1
-70.806438 42.729449 -2.4
-70.800566 42.729462 -2.4
-70.801480 42.729468 -4.0
-70.804125 42.729499 -0.9
-70.804563 42.729501 -0.9
-70.801927 42.729504 -2.7
-70.801722 42.729554 -4.0
-70.808719 42.729568 -0.6
-70.800333 42.729596 -2.7
-70.807761 42.729601 -1.8
-70.808950 42.729637 -0.3
-70.809622 42.729643 -0.9
-70.802202 42.729649 -0.3
-70.811837 42.729660 -0.3
-70.801505 42.729668 -3.4
-70.805213 42.729674 -0.6
-70.800000 42.729687 -2.4
-70.801266 42.729724 -4.0
-70.810059 42.729729 -0.6
-70.802661 42.729751 -0.3
-70.812317 42.729757 -0.3
-70.811289 42.729785 -0.3
-70.800605 42.729790 -4.0
-70.805869 42.729807 -1.5
-70.810889 42.729807 -0.3
-70.803447 42.729837 -0.6
-70.813070 42.729843 0.0
-70.800911 42.729857 -3.7
-70.802044 42.729860 -1.5
-70.806477 42.729862 -2.1
-70.808852 42.729874 -0.3
-70.807166 42.729893 -2.1
-70.801483 42.729924 -4.0
-70.800708 42.729946 -4.0
-70.804544 42.729949 -0.9
-70.808752 42.729974 -0.6
-70.812003 42.729985 -0.3
-70.800050 42.729990 -2.7
-70.807794 42.730010 -1.2
-70.804025 42.730012 -1.2
-70.800450 42.730037 -3.4
-70.805186 42.730043 -0.9
-70.812470 42.730082 -0.2
-70.808883 42.730087 -0.6
-70.810528 42.730087 -0.6
-70.811156 42.730104 -0.3
-70.813231 42.730107 -0.3
-70.809948 42.730126 -0.3
-70.802633 42.730160 -0.3
-70.799997 42.730168 -2.4
-70.802219 42.730174 -0.3
-70.809538 42.730176 -0.3
-70.805858 42.730210 -1.5
-70.803441 42.730254 -0.9
-70.799836 42.730257 -2.1
-70.800625 42.730299 -4.0
-70.810834 42.730343 -0.2
-70.800113 42.730357 -3.4
-70.807113 42.730357 -1.5
-70.812651 42.730365 0.0
-70.808722 42.730368 -0.6
-70.801433 42.730376 -3.0
-70.806402 42.730376 -1.8
-70.812228 42.730376 -0.3
-70.804505 42.730385 -0.6
-70.807752 42.730396 -0.9
-70.809953 42.730457 -0.2
-70.813389 42.730476 -0.3
-70.811256 42.730490 -0.3
-70.805861 42.730504 -1.5
-70.811095 42.730532 -0.2
-70.804000 42.730535 -1.2
-70.805161 42.730537 -0.6
-70.808811 42.730540 -0.3
-70.802613 42.730582 -0.3
-70.803402 42.730612 -0.9
-70.809523 42.730618 -0.2
-70.812806 42.730618 -0.2
-70.800144 42.730676 -3.4
-70.802175 42.730701 -0.3
-70.800600 42.730737 -3.4
-70.808711 42.730746 -0.2
-70.812417 42.730765 -0.3
-70.811659 42.730771 0.0
-70.801405 42.730793 -2.7
-70.810837 42.730812 0.3
-70.811031 42.730821 0.0
-70.809909 42.730826 0.0
-70.806341 42.730840 -1.8
-70.807069 42.730849 -0.9
-70.804511 42.730868 -0.6
-70.805838 42.730871 -1.5
-70.807691 42.730887 0.0
-70.799597 42.730896 -1.2
-70.812970 42.730896 -0.3
-70.813584 42.730904 -0.3
-70.803988 42.730987 -0.9
-70.812026 42.730990 0.0
-70.800186 42.731001 -2.7
-70.803380 42.731001 -0.9
-70.808705 42.731007 0.0
-70.805111 42.731037 -0.2
-70.802605 42.731049 -0.3
-70.809489 42.731096 0.2
-70.799691 42.731104 -3.0
-70.801394 42.731146 -2.4
-70.800200 42.731160 -3.0
-70.809953 42.731162 0.2
-70.813123 42.731165 -0.3
-70.800647 42.731176 -3.4
-70.812617 42.731182 -0.3
-70.804472 42.731201 -0.3
-70.811095 42.731218 0.0
-70.802188 42.731232 -0.3
-70.799966 42.731235 -3.7
-70.810812 42.731243 0.3
-70.812420 42.731257 -0.2
-70.807627 42.731271 0.0
-70.807047 42.731307 -0.6
-70.801827 42.731349 0.0
-70.806369 42.731349 -1.2
-70.813817 42.731357 -0.3
-70.800163 42.731360 -2.4
-70.803366 42.731360 -0.9
-70.799833 42.731424 -3.7
-70.802594 42.731443 -0.3
-70.813273 42.731451 -0.3
-70.804452 42.731454 -0.2
-70.803950 42.731479 -0.6
-70.808666 42.731490 0.0
-70.805833 42.731510 -1.2
-70.805058 42.731515 -0.3
-70.800233 42.731521 -2.4
-70.811098 42.731574 0.0
-70.800636 42.731582 -3.0
-70.801350 42.731585 -2.4
-70.809509 42.731593 0.3
-70.812839 42.731601 -0.2
-70.809934 42.731604 0.3
-70.800055 42.731621 -3.0
-70.799494 42.731679 -3.4
-70.800413 42.731710 -1.8
-70.804452 42.731710 -0.3
-70.813131 42.731710 -0.3
-70.810828 42.731715 0.2
-70.813437 42.731735 -0.6
-70.807683 42.731740 0.2
-70.805791 42.731746 -0.3
-70.803350 42.731751 -0.9
-70.814051 42.731757 -0.6
-70.802125 42.731765 -0.2
-70.806338 42.731824 -1.2
-70.807016 42.731824 -0.2
-70.804425 42.731882 0.0
-70.802575 42.731896 -0.3
-70.800625 42.731904 -2.7
-70.800280 42.731918 -1.8
-70.808773 42.731918 0.0
-70.805036 42.731943 -0.2
-70.803919 42.731960 -0.6
-70.813062 42.731960 0.2
-70.805863 42.731962 -0.6
-70.811128 42.731979 0.0
-70.808522 42.731982 0.0
-70.809926 42.732004 0.3
-70.801425 42.732010 -2.1
-70.802111 42.732010 0.0
-70.799683 42.732012 -3.4
-70.813662 42.732024 -0.6
-70.810817 42.732029 0.2
-70.800122 42.732054 -1.8
-70.800813 42.732112 -3.0
-70.809539 42.732126 0.3
-70.804394 42.732140 -0.3
-70.803344 42.732157 -0.9
-70.807580 42.732162 0.3
-70.800538 42.732174 -2.1
-70.805836 42.732182 -0.6
-70.814256 42.732182 -0.2
-70.810817 42.732235 0.0
-70.799908 42.732262 -4.0
-70.806377 42.732276 -0.6
-70.800994 42.732293 -2.4
-70.808778 42.732301 0.0
-70.813795 42.732304 -0.6
-70.802100 42.732324 -0.2
-70.802552 42.732349 -0.3
-70.806991 42.732349 0.3
-70.800638 42.732362 -3.0
-70.809912 42.732368 0.6
-70.800091 42.732396 -1.8
-70.805766 42.732396 -0.9
-70.801408 42.732399 -2.4
-70.814148 42.732404 -0.9
-70.808476 42.732418 0.2
-70.804988 42.732440 0.0
-70.803816 42.732443 -0.3
-70.800802 42.732460 -2.4
-70.813270 42.732460 0.3
-70.801177 42.732507 -2.1
-70.804030 42.732526 0.0
-70.809478 42.732535 0.3
-70.813884 42.732537 -0.3
-70.806419 42.732546 -0.6
-70.804369 42.732554 -0.3
-70.803333 42.732562 -0.6
-70.799891 42.732587 -4.3
-70.814528 42.732596 -0.9
-70.807525 42.732599 0.3
-70.808712 42.732637 0.3
-70.800325 42.732654 -1.8
-70.810803 42.732674 0.0
-70.814389 42.732682 -0.6
-70.811206 42.732701 0.0
-70.802563 42.732715 0.0
-70.806383 42.732718 -0.9
-70.801380 42.732743 -2.4
-70.800586 42.732746 -2.7
-70.801711 42.732749 -2.4
-70.801016 42.732754 -2.1
-70.809873 42.732754 0.6
-70.802077 42.732762 -1.5
-70.814031 42.732785 -0.2
-70.799913 42.732807 -4.0
-70.800100 42.732810 -2.4
-70.805788 42.732810 -0.9
-70.813484 42.732812 0.6
-70.800408 42.732821 -2.1
-70.806913 42.732843 0.3
-70.801547 42.732893 -1.8
-70.804947 42.732896 -0.3
-70.809470 42.732899 0.6
-70.808337 42.732924 0.3
-70.803797 42.732926 0.2
-70.802372 42.732929 0.0
-70.814834 42.732932 -0.9
-70.804383 42.732971 -0.3
-70.803297 42.732993 -0.6
-70.801230 42.732996 -2.1
-70.814678 42.733015 -1.5
-70.810856 42.733018 -0.2
-70.808714 42.733021 0.3
-70.807458 42.733054 0.3
-70.809798 42.733062 0.9
-70.800591 42.733082 -2.4
-70.814173 42.733087 0.2
-70.800075 42.733143 -4.0
-70.814789 42.733193 -1.5
-70.806325 42.733207 -0.3
-70.801425 42.733221 -2.1
-70.805741 42.733260 -0.3
-70.803925 42.733301 0.3
-70.806897 42.733304 0.3
-70.800316 42.733329 -4.0
-70.804988 42.733337 -0.6
-70.801950 42.733343 -1.8
-70.803247 42.733354 -0.6
-70.800805 42.733365 -2.1
-70.814387 42.733368 0.3
-70.802691 42.733385 0.0
-70.808328 42.733390 0.0
-70.814928 42.733399 -1.5
-70.804327 42.733410 -0.3
-70.803761 42.733418 0.3
-70.800533 42.733421 -2.4
-70.821803 42.716812 0.3
-70.821920 42.717090 0.3
-70.822034 42.717285 0.6
-70.816258 42.717540 -0.6
-70.822128 42.717601 0.6
-70.822201 42.717826 0.3
-70.816197 42.718493 -2.1
-70.816450 42.718751 -0.9
-70.816311 42.718879 -1.2
-70.816787 42.719046 0.0
-70.816283 42.719132 -1.5
-70.817206 42.719321 0.3
-70.816651 42.719424 -0.3
-70.817512 42.719526 0.6
-70.817017 42.719760 -0.2
-70.816517 42.719976 -0.3
-70.817395 42.720162 0.0
-70.820967 42.720299 -0.6
-70.816859 42.720301 -0.6
-70.820809 42.720304 -0.6
-70.817620 42.720374 0.6
-70.821328 42.720379 -3.7
-70.820531 42.720468 -2.4
-70.821695 42.720535 -3.0
-70.817192 42.720599 0.0
-70.820698 42.720599 0.0
-70.822803 42.720599 -0.2
-70.822278 42.720604 -1.2
-70.821989 42.720626 -2.7
-70.820376 42.720690 -2.7
-70.821770 42.720715 -0.9
-70.820831 42.720726 0.3
-70.820003 42.720757 -2.4
-70.821039 42.720765 0.3
-70.819576 42.720776 -2.1
-70.816462 42.720785 -1.8
-70.821501 42.720829 0.0
-70.818787 42.720846 -0.3
-70.820523 42.720865 0.0
-70.818964 42.720887 -1.2
-70.820706 42.720896 0.3
-70.821284 42.720921 0.0
-70.820964 42.720924 0.3
-70.817489 42.720932 0.0
-70.820176 42.720996 -0.3
-70.821092 42.720999 0.0
-70.819151 42.721007 -0.9
-70.819323 42.721040 -0.6
-70.816856 42.721096 -0.2
-70.822320 42.721129 -0.2
-70.816337 42.721143 -3.0
-70.818776 42.721154 -0.9
-70.819417 42.721229 -0.6
-70.819964 42.721229 -0.3
-70.817753 42.721243 0.0
-70.819567 42.721357 0.0
-70.818989 42.721368 -0.9
-70.819873 42.721387 0.0
-70.818448 42.721390 -0.3
-70.816753 42.721412 -0.3
-70.817306 42.721435 0.2
-70.818026 42.721537 0.3
-70.818645 42.721671 0.2
-70.817737 42.721715 0.6
-70.818259 42.721718 -0.9
-70.817098 42.721724 0.0
-70.816351 42.721760 -2.4
-70.817906 42.721826 -0.6
-70.817328 42.721874 -0.6
-70.818392 42.721887 0.9
-70.817523 42.721985 0.2
-70.818098 42.722018 0.6
-70.816662 42.722049 -1.5
-70.817328 42.722149 -0.9
-70.818656 42.722182 0.6
-70.818417 42.722260 0.6
-70.817892 42.722301 0.6
-70.816926 42.722393 -0.6
-70.817084 42.722432 -0.3
-70.816192 42.722474 -1.5
-70.818267 42.722532 0.9
-70.816592 42.722601 -1.5
-70.817381 42.722746 0.3
-70.816662 42.722804 -0.6
-70.817731 42.723037 0.6
-70.817106 42.723224 -0.2
-70.816453 42.723429 -1.5
-70.817484 42.723529 0.3
-70.816856 42.723737 -0.6
-70.817809 42.723893 0.3
-70.817239 42.724040 -0.2
-70.818239 42.724246 0.6
-70.816412 42.724340 -1.2
-70.817614 42.724440 0.3
-70.818628 42.724657 0.3
-70.816751 42.724668 -0.6
-70.818006 42.724768 0.6
-70.816376 42.724876 -0.9
-70.818887 42.724885 0.2
-70.817098 42.725001 0.3
-70.818367 42.725124 0.6
-70.816695 42.725199 -0.6
-70.816278 42.725271 -0.6
-70.817467 42.725351 0.6
-70.818742 42.725446 0.2
-70.817251 42.725549 0.6
-70.817801 42.725679 0.9
-70.817409 42.725854 0.6
-70.816695 42.726012 -0.9
-70.817595 42.726171 0.6
-70.816326 42.726351 0.3
-70.816887 42.726365 -0.3
-70.817756 42.726487 0.6
-70.816609 42.726779 0.3
-70.817939 42.726793 0.6
-70.816189 42.726804 -2.7
-70.817137 42.726846 -0.3
-70.817445 42.726940 -0.2
-70.818089 42.727101 0.6
-70.816942 42.727165 0.2
-70.817664 42.727210 -0.3
-70.817356 42.727251 0.0
-70.816556 42.727296 -3.4
-70.816201 42.727382 -3.0
-70.818259 42.727382 0.6
-70.817839 42.727426 -0.3
-70.817256 42.727571 0.3
-70.816370 42.727593 -3.0
-70.817603 42.727668 0.3
-70.818517 42.727671 0.6
-70.816926 42.727710 -3.0
-70.818034 42.727715 -0.6
-70.816592 42.727849 -2.1
-70.818253 42.727954 -0.3
-70.818767 42.727968 0.6
-70.817570 42.727993 -0.3
-70.816737 42.728074 -1.2
-70.817845 42.728093 -0.6
-70.816837 42.728179 -1.5
-70.818456 42.728199 -0.3
-70.817262 42.728221 -1.8
-70.819042 42.728268 0.6
-70.817848 42.728343 -2.7
-70.817070 42.728440 -0.9
-70.818137 42.728476 -1.5
-70.818706 42.728479 -0.3
-70.819264 42.728546 0.6
-70.817717 42.728654 -2.1
-70.817326 42.728699 -0.3
-70.818881 42.728721 -0.6
-70.818170 42.728760 -2.4
-70.819467 42.728824 0.6
-70.818428 42.728876 -2.7
-70.817878 42.728932 -2.4
-70.817559 42.728940 0.0
-70.819123 42.728965 -0.6
-70.819698 42.729093 0.6
-70.818026 42.729132 -1.5
-70.818548 42.729146 -3.0
-70.819398 42.729210 -0.6
-70.818839 42.729274 -3.7
-70.819964 42.729426 0.3
-70.819631 42.729474 -0.6
-70.818448 42.729529 -0.6
-70.818889 42.729540 -3.4
-70.820245 42.729657 0.3
-70.819306 42.729668 -3.7
-70.819928 42.729715 -0.9
-70.819312 42.729893 -3.7
-70.820520 42.729893 0.3
-70.818931 42.729896 -0.3
-70.819642 42.729971 -4.0
-70.820126 42.729982 -1.5
-70.820803 42.730129 0.0
-70.820339 42.730182 -1.8
-70.819773 42.730193 -2.7
-70.819431 42.730251 -0.3
-70.820131 42.730276 -4.0
-70.820703 42.730360 -0.9
-70.821089 42.730362 0.0
-70.820951 42.730529 -0.6
-70.820195 42.730549 -2.4
-70.821420 42.730562 0.0
-70.820570 42.730568 -4.3
-70.819953 42.730576 -0.3
-70.821881 42.730721 -0.2
-70.821267 42.730724 -0.9
-70.820720 42.730787 -4.0
-70.821042 42.730790 -3.4
-70.821484 42.730832 -1.5
-70.822312 42.730890 0.0
-70.832667 42.730918 -0.9
-70.820498 42.730932 -0.3
-70.822748 42.731012 0.0
-70.821456 42.731018 -2.4
-70.832289 42.731021 -0.9
-70.821256 42.731035 -2.4
-70.831767 42.731151 -0.6
-70.823245 42.731160 0.2
-70.821931 42.731232 -1.5
-70.831281 42.731271 -0.3
-70.823656 42.731293 0.2
-70.821778 42.731299 -2.4
-70.832434 42.731310 0.0
-70.822478 42.731365 -0.3
-70.830887 42.731424 -0.6
-70.824112 42.731440 0.2
-70.832001 42.731454 0.3
-70.822973 42.731524 0.0
-70.822414 42.731543 -2.4
-70.824612 42.731551 0.2
-70.821481 42.731562 -1.2
-70.830373 42.731574 -1.2
-70.825084 42.731626 0.3
-70.831564 42.731635 0.3
-70.823601 42.731643 0.2
-70.829895 42.731682 -1.8
-70.823042 42.731693 -2.1
-70.825553 42.731696 0.3
-70.821995 42.731712 -1.5
-70.826026 42.731726 0.2
-70.826520 42.731749 0.3
-70.829478 42.731754 -2.4
-70.832487 42.731768 0.3
-70.822356 42.731785 -3.0
-70.827498 42.731799 -0.3
-70.826989 42.731810 0.0
-70.829012 42.731815 -2.1
-70.824337 42.731826 0.3
-70.828028 42.731832 -0.9
-70.828503 42.731849 -1.5
-70.831048 42.731868 0.6
-70.831901 42.731868 0.3
-70.823589 42.731871 -0.6
-70.822064 42.731874 -1.5
-70.824767 42.731912 0.2
-70.822753 42.731929 -3.4
-70.825398 42.731932 0.2
-70.831217 42.731976 0.6
-70.824092 42.731996 0.2
-70.825942 42.732004 0.0
-70.830651 42.732032 0.6
-70.823042 42.732035 -4.0
-70.830037 42.732057 0.9
-70.828270 42.732062 -0.2
-70.828823 42.732065 0.0
-70.826539 42.732068 -0.2
-70.825228 42.732079 0.0
-70.829420 42.732085 0.3
-70.822706 42.732112 -3.7
-70.823331 42.732129 -4.0
-70.827076 42.732135 -0.6
-70.827648 42.732135 -1.2
-70.824639 42.732182 0.3
-70.825742 42.732199 -0.2
-70.830228 42.732229 0.9
-70.823703 42.732262 -3.7
-70.826195 42.732262 -0.3
-70.829712 42.732301 0.6
-70.823289 42.732315 -4.3
-70.825178 42.732315 0.3
-70.832412 42.732324 -0.3
-70.826698 42.732326 -0.6
-70.829237 42.732332 0.3
-70.824070 42.732337 -3.7
-70.828751 42.732343 0.2
-70.831839 42.732349 0.3
-70.828223 42.732351 0.0
-70.827181 42.732371 -0.9
-70.827681 42.732371 -0.2
-70.831287 42.732387 0.6
-70.825748 42.732393 0.2
-70.832142 42.732407 -0.9
-70.824451 42.732418 -3.7
-70.830770 42.732437 0.6
-70.826253 42.732474 0.0
-70.830264 42.732482 0.6
-70.829114 42.732493 0.3
-70.829662 42.732504 0.6
-70.827970 42.732507 0.2
-70.824820 42.732518 -3.4
-70.823942 42.732524 -5.2
-70.828559 42.732524 0.3
-70.827420 42.732526 -0.3
-70.826845 42.732549 -0.3
-70.831376 42.732604 -0.9
-70.825206 42.732612 -3.0
-70.830823 42.732626 -0.6
-70.830481 42.732632 -0.9
-70.825595 42.732646 -2.7
-70.824234 42.732649 -6.4
-70.830081 42.732651 -0.9
-70.829692 42.732687 -1.2
-70.831620 42.732687 -1.5
-70.825942 42.732707 -2.4
-70.829306 42.732735 -1.2
-70.826323 42.732751 -2.1
-70.828181 42.732762 -1.2
-70.827076 42.732768 -1.2
-70.827834 42.732774 -1.2
-70.824601 42.732779 -5.8
-70.827442 42.732779 -1.2
-70.828889 42.732779 -1.2
-70.826689 42.732782 -1.8
-70.828545 42.732785 -1.2
-70.831001 42.732824 -1.5
-70.825214 42.732871 -4.9
-70.825884 42.732974 -3.7
-70.830423 42.732979 -1.5
-70.829864 42.733065 -0.9
-70.826564 42.733074 -0.6
-70.827212 42.733135 0.0
-70.829276 42.733185 -0.9
-70.827923 42.733221 0.0
-70.828598 42.733268 0.0
-70.763515 42.733804 -10.7
-70.761954 42.733868 -11.6
-70.762526 42.733868 -11.3
-70.761118 42.733887 -11.6
-70.763160 42.733921 -11.0
-70.760457 42.733924 -12.2
-70.759926 42.733940 -12.2
-70.756693 42.733943 -14.3
-70.763887 42.733943 -10.7
-70.764535 42.734012 -10.1
-70.765151 42.734024 -10.1
-70.765851 42.734051 -9.8
-70.758735 42.734068 -13.1
-70.763762 42.734240 -10.7
-70.760443 42.734310 -12.2
-70.761065 42.734365 -11.9
-70.761751 42.734399 -11.6
-70.762285 42.734440 -11.3
-70.765485 42.734501 -10.1
-70.763546 42.734507 -10.7
-70.762935 42.734510 -11.0
-70.764221 42.734529 -10.4
-70.764951 42.734615 -10.4
-70.764018 42.734712 -10.7
-70.762307 42.734726 -11.6
-70.761621 42.734743 -11.9
-70.764271 42.735137 -10.7
-70.764224 42.735401 -11.0
-70.764949 42.735407 -10.7
-70.765571 42.735412 -10.4
-70.763610 42.735421 -11.3
-70.764521 42.735615 -10.7
-70.764735 42.736037 -10.7
-70.764937 42.736510 -10.7
-70.765874 42.736737 -10.7
-70.760746 42.736754 -13.7
-70.765254 42.736790 -11.0
-70.764537 42.736818 -11.3
-70.763826 42.736837 -11.6
-70.763287 42.736876 -11.6
-70.765187 42.737037 -11.0
-70.766096 42.737204 -10.7
-70.764846 42.737221 -11.3
-70.765465 42.737232 -11.0
-70.765407 42.737504 -11.0
-70.765582 42.737957 -11.0
-70.766051 42.738037 -11.0
-70.765257 42.738046 -11.3
-70.764612 42.738071 -11.6
-70.763968 42.738090 -11.9
-70.763393 42.738104 -12.2
-70.765812 42.738446 -11.0
-70.766049 42.738887 -11.0
-70.765004 42.739015 -11.6
-70.765579 42.739021 -11.3
-70.766054 42.739682 -11.3
-70.765415 42.739690 -11.6
-70.764218 42.739726 -12.2
-70.764721 42.739735 -11.9
-70.760182 42.740074 -14.9
-70.762524 42.740176 -12.5
-70.763010 42.740187 -12.8
-70.763643 42.740210 -12.8
-70.764324 42.740240 -12.5
-70.764962 42.740268 -12.2
-70.765646 42.740268 -11.6
-70.766130 42.741165 -11.6
-70.765468 42.741215 -11.9
-70.764943 42.741235 -12.2
-70.765855 42.741960 -12.2
-70.765575 42.742907 -12.5
-70.764446 42.742926 -14.3
-70.766047 42.745271 -14.0
-70.766144 42.746440 -14.6
-70.765783 42.747785 -15.8
-70.766094 42.749435 -16.2
-70.773377 42.733429 -7.6
-70.773997 42.733440 -7.3
-70.774622 42.733440 -7.0
-70.772116 42.733446 -8.2
-70.775305 42.733460 -6.4
-70.775938 42.733482 -6.4
-70.776561 42.733482 -6.4
-70.777175 42.733485 -6.1
-70.777794 42.733485 -5.8
-70.778402 42.733493 -5.5
-70.779680 42.733501 -4.9
-70.779080 42.733521 -5.2
-70.780347 42.733521 -4.3
-70.781655 42.733582 -3.4
-70.768832 42.733593 -8.8
-70.769374 42.733610 -8.5
-70.782225 42.733621 -2.7
-70.781011 42.733679 -3.7
-70.777938 42.733785 -5.8
-70.769749 42.734060 -8.5
-70.770388 42.734082 -8.2
-70.766535 42.734087 -9.4
-70.767185 42.734087 -9.4
-70.768460 42.734090 -8.8
-70.777027 42.734107 -6.4
-70.769315 42.734110 -8.5
-70.767801 42.734112 -9.1
-70.776433 42.734115 -6.4
-70.774486 42.734146 -6.7
-70.775788 42.734146 -6.7
-70.775113 42.734149 -6.7
-70.773836 42.734162 -7.6
-70.780975 42.734162 -4.0
-70.772497 42.734182 -7.6
-70.773183 42.734185 -7.6
-70.771844 42.734196 -8.2
-70.771172 42.734229 -8.2
-70.768646 42.734332 -8.8
-70.768015 42.734387 -9.1
-70.781672 42.734415 -3.7
-70.782325 42.734415 -3.0
-70.767379 42.734424 -9.4
-70.781044 42.734429 -4.3
-70.780383 42.734449 -4.9
-70.766760 42.734468 -9.4
-70.779727 42.734471 -5.2
-70.779108 42.734493 -5.5
-70.778411 42.734496 -5.8
-70.777794 42.734518 -6.1
-70.770711 42.734529 -8.2
-70.777172 42.734546 -6.4
-70.769240 42.734590 -8.5
-70.776588 42.734599 -6.7
-70.766226 42.734601 -9.8
-70.768179 42.734640 -9.1
-70.767512 42.734649 -9.8
-70.768837 42.734660 -9.1
-70.775972 42.734660 -6.7
-70.775405 42.734685 -7.0
-70.770152 42.734696 -8.5
-70.780883 42.734710 -4.3
-70.769641 42.734718 -8.5
-70.774763 42.734749 -7.3
-70.771530 42.734754 -8.2
-70.772225 42.734762 -8.2
-70.772922 42.734782 -7.9
-70.774200 42.734785 -7.6
-70.773619 42.734807 -7.6
-70.770666 42.734960 -8.2
-70.769162 42.735096 -8.8
-70.769911 42.735099 -8.5
-70.780830 42.735140 -4.6
-70.779105 42.735324 -5.8
-70.780436 42.735324 -5.2
-70.781058 42.735329 -4.6
-70.781738 42.735335 -4.0
-70.778502 42.735337 -6.1
-70.779763 42.735337 -5.5
-70.782430 42.735340 -3.4
-70.777863 42.735343 -6.4
-70.770561 42.735354 -8.2
-70.777216 42.735379 -6.7
-70.775286 42.735412 -7.3
-70.776597 42.735415 -7.0
-70.774672 42.735418 -7.6
-70.766907 42.735426 -9.8
-70.766274 42.735443 -10.1
-70.774011 42.735443 -7.9
-70.775922 42.735443 -7.0
-70.767529 42.735446 -9.8
-70.768135 42.735471 -9.4
-70.773394 42.735476 -7.9
-70.769491 42.735496 -8.8
-70.770155 42.735499 -8.5
-70.772702 42.735499 -8.2
-70.768793 42.735501 -9.1
-70.771419 42.735504 -8.5
-70.772005 42.735512 -8.2
-70.769147 42.735574 -8.8
-70.780761 42.735662 -4.6
-70.770541 42.735729 -8.5
-70.770202 42.735912 -8.5
-70.769111 42.736040 -9.1
-70.770483 42.736126 -8.5
-70.780736 42.736149 -5.2
-70.777719 42.736224 -6.7
-70.777125 42.736232 -7.0
-70.778441 42.736232 -6.4
-70.779036 42.736237 -6.1
-70.779675 42.736237 -5.8
-70.776430 42.736254 -7.3
-70.780383 42.736268 -5.5
-70.780991 42.736268 -5.2
-70.775822 42.736301 -7.3
-70.781558 42.736301 -4.6
-70.775188 42.736329 -7.6
-70.782227 42.736349 -4.0
-70.774588 42.736376 -7.9
-70.773905 42.736429 -8.2
-70.773280 42.736449 -8.2
-70.772702 42.736454 -8.5
-70.772041 42.736512 -8.5
-70.771375 42.736515 -8.5
-70.770738 42.736526 -8.8
-70.770422 42.736551 -8.8
-70.769500 42.736579 -9.1
-70.780691 42.736618 -5.5
-70.768285 42.736632 -9.8
-70.768925 42.736643 -9.4
-70.767665 42.736685 -9.8
-70.767076 42.736704 -10.1
-70.766432 42.736718 -10.4
-70.770300 42.736896 -8.8
-70.769016 42.736987 -9.4
-70.780611 42.737068 -6.1
-70.766724 42.737171 -10.4
-70.768038 42.737176 -10.1
-70.767374 42.737196 -10.1
-70.768630 42.737199 -9.8
-70.782202 42.737224 -4.6
-70.781561 42.737229 -5.2
-70.769280 42.737232 -9.4
-70.780261 42.737243 -6.4
-70.780916 42.737246 -5.8
-70.779672 42.737274 -6.4
-70.780577 42.737285 -5.8
-70.769841 42.737290 -9.4
-70.778975 42.737290 -6.7
-70.778311 42.737307 -6.7
-70.771150 42.737315 -8.8
-70.774997 42.737332 -8.2
-70.776338 42.737332 -7.6
-70.776966 42.737332 -7.3
-70.773058 42.737335 -8.5
-70.774350 42.737340 -8.2
-70.777613 42.737340 -7.3
-70.771786 42.737346 -8.8
-70.770327 42.737349 -8.8
-70.775677 42.737351 -8.2
-70.773683 42.737354 -8.5
-70.772419 42.737368 -8.8
-70.768980 42.737524 -9.4
-70.780533 42.737599 -6.1
-70.770363 42.737807 -9.1
-70.778002 42.737854 -7.3
-70.777358 42.737862 -7.6
-70.776705 42.737879 -7.9
-70.775530 42.737912 -8.2
-70.776155 42.737912 -8.2
-70.778688 42.737921 -6.7
-70.779338 42.737921 -6.7
-70.769913 42.737937 -9.4
-70.774905 42.737937 -8.5
-70.774286 42.737960 -8.5
-70.772436 42.737965 -8.8
-70.768561 42.737974 -9.8
-70.771788 42.737974 -8.8
-70.767318 42.737976 -10.4
-70.773708 42.737976 -8.5
-70.769266 42.737979 -9.8
-70.767961 42.737982 -10.1
-70.780041 42.737985 -6.4
-70.773097 42.737993 -8.8
-70.771163 42.738001 -9.1
-70.766674 42.738015 -10.7
-70.781338 42.738035 -5.8
-70.768911 42.738037 -9.8
-70.782636 42.738046 -4.6
-70.780436 42.738051 -6.1
-70.782019 42.738057 -5.2
-70.770411 42.738268 -9.3
-70.769613 42.738354 -9.4
-70.768838 42.738512 -9.8
-70.780402 42.738551 -6.1
-70.770408 42.738676 -9.4
-70.782336 42.738704 -5.2
-70.781708 42.738737 -5.8
-70.781072 42.738762 -5.8
-70.779136 42.738882 -7.3
-70.779783 42.738887 -7.0
-70.773325 42.738896 -8.8
-70.770725 42.738904 -9.8
-70.771325 42.738904 -9.8
-70.772666 42.738912 -9.1
-70.778516 42.738915 -7.6
-70.773897 42.738924 -8.8
-70.772058 42.738926 -9.4
-70.769436 42.738940 -10.1
-70.774580 42.738940 -8.8
-70.775175 42.738940 -8.8
-70.777786 42.738949 -7.9
-70.770100 42.738954 -9.8
-70.776488 42.738962 -8.5
-70.775855 42.738971 -8.8
-70.768866 42.738974 -10.1
-70.777119 42.738974 -8.2
-70.766896 42.738982 -10.7
-70.767522 42.738985 -10.4
-70.768166 42.738999 -10.4
-70.780322 42.739026 -6.7
-70.770441 42.739137 -9.8
-70.780300 42.739246 -7.0
-70.766201 42.739324 -11.0
-70.782116 42.739410 -5.5
-70.782736 42.739437 -4.9
-70.781486 42.739460 -6.1
-70.780891 42.739476 -6.4
-70.780211 42.739493 -6.7
-70.770438 42.739518 -9.8
-70.779672 42.739535 -7.3
-70.768825 42.739551 -10.4
-70.779016 42.739579 -7.6
-70.778380 42.739585 -7.9
-70.777769 42.739604 -8.2
-70.777094 42.739607 -8.5
-70.776441 42.739612 -8.8
-70.766902 42.739629 -11.0
-70.767469 42.739637 -11.0
-70.775838 42.739643 -8.8
-70.768166 42.739649 -10.7
-70.775233 42.739657 -8.8
-70.773372 42.739668 -9.4
-70.772725 42.739671 -9.8
-70.770133 42.739674 -10.1
-70.770833 42.739674 -10.1
-70.774619 42.739674 -9.1
-70.773969 42.739676 -9.3
-70.769466 42.739685 -10.4
-70.771408 42.739687 -9.8
-70.772108 42.739690 -9.8
-70.766360 42.739762 -11.3
-70.770461 42.739960 -10.1
-70.768758 42.739965 -10.4
-70.780194 42.739968 -7.0
-70.772697 42.740060 -9.8
-70.775875 42.740065 -8.8
-70.776466 42.740068 -8.8
-70.775250 42.740074 -9.1
-70.777177 42.740074 -8.5
-70.773952 42.740082 -9.8
-70.774630 42.740087 -9.4
-70.773361 42.740093 -9.8
-70.777794 42.740096 -8.2
-70.772111 42.740112 -9.8
-70.779033 42.740112 -7.3
-70.771419 42.740129 -10.1
-70.766577 42.740132 -11.3
-70.778413 42.740137 -7.9
-70.779697 42.740151 -7.3
-70.770850 42.740157 -10.1
-70.780341 42.740174 -7.0
-70.769591 42.740190 -10.1
-70.768950 42.740193 -10.4
-70.770233 42.740196 -10.1
-70.768375 42.740199 -10.7
-70.767605 42.740212 -11.0
-70.780983 42.740221 -6.4
-70.781616 42.740221 -6.1
-70.766988 42.740237 -11.0
-70.766286 42.740246 -11.3
-70.782247 42.740260 -5.5
-70.770488 42.740410 -10.1
-70.768727 42.740426 -10.7
-70.780091 42.740443 -7.0
-70.766722 42.740568 -11.3
-70.770530 42.740840 -10.4
-70.780069 42.740893 -7.0
-70.768694 42.740918 -10.7
-70.766911 42.741040 -11.6
-70.782702 42.741054 -5.2
-70.767597 42.741062 -11.3
-70.782047 42.741076 -5.8
-70.775547 42.741093 -9.1
-70.781422 42.741093 -6.1
-70.776861 42.741096 -8.8
-70.768219 42.741104 -11.0
-70.774927 42.741107 -9.4
-70.776180 42.741110 -8.8
-70.773569 42.741112 -9.8
-70.778827 42.741112 -7.3
-70.779458 42.741112 -7.3
-70.774261 42.741115 -9.4
-70.778127 42.741118 -7.6
-70.780775 42.741124 -6.4
-70.768950 42.741132 -11.0
-70.769597 42.741135 -10.7
-70.772911 42.741135 -10.1
-70.777508 42.741135 -8.5
-70.780138 42.741135 -7.0
-70.770952 42.741149 -10.4
-70.772272 42.741149 -10.1
-70.771566 42.741162 -10.1
-70.770533 42.741251 -10.4
-70.780005 42.741387 -7.3
-70.767080 42.741412 -11.6
-70.781600 42.741479 -6.1
-70.768669 42.741485 -11.0
-70.780997 42.741485 -6.4
-70.782191 42.741485 -5.8
-70.780391 42.741496 -7.0
-70.778466 42.741501 -7.6
-70.779702 42.741504 -7.3
-70.779072 42.741510 -7.3
-70.777838 42.741515 -8.2
-70.777227 42.741521 -8.5
-70.776597 42.741535 -8.8
-70.775972 42.741565 -9.1
-70.775322 42.741587 -9.4
-70.774688 42.741604 -9.8
-70.774063 42.741632 -10.1
-70.773411 42.741637 -10.1
-70.770541 42.741685 -10.4
-70.772819 42.741687 -10.1
-70.772216 42.741721 -10.1
-70.767277 42.741810 -11.6
-70.771525 42.741815 -10.4
-70.770947 42.741835 -10.7
-70.779969 42.741860 -7.3
-70.770275 42.741871 -10.7
-70.769636 42.741893 -11.0
-70.768352 42.741904 -11.3
-70.769038 42.741918 -11.0
-70.768675 42.741940 -11.3
-70.767794 42.741957 -11.3
-70.766544 42.741974 -11.6
-70.770572 42.742049 -10.7
-70.767525 42.742226 -11.6
-70.779911 42.742329 -7.3
-70.770594 42.742421 -11.0
-70.768650 42.742424 -11.3
-70.782641 42.742429 -6.1
-70.781375 42.742454 -6.4
-70.781972 42.742460 -6.1
-70.779416 42.742485 -7.6
-70.778797 42.742487 -7.9
-70.780694 42.742496 -7.0
-70.778163 42.742515 -8.2
-70.777569 42.742526 -8.5
-70.776900 42.742551 -8.8
-70.776291 42.742587 -9.1
-70.774383 42.742618 -10.4
-70.775030 42.742624 -10.1
-70.775605 42.742624 -9.8
-70.767766 42.742632 -11.9
-70.772572 42.742643 -10.4
-70.771950 42.742646 -10.7
-70.773777 42.742646 -10.4
-70.771302 42.742665 -11.0
-70.773163 42.742674 -10.4
-70.770047 42.742701 -11.3
-70.769341 42.742724 -11.3
-70.768122 42.742787 -11.6
-70.779902 42.742793 -7.9
-70.767408 42.742799 -11.9
-70.770577 42.742840 -11.3
-70.766877 42.742874 -12.2
-70.766250 42.742896 -12.2
-70.768633 42.742921 -11.6
-70.767963 42.743099 -11.9
-70.780444 42.743254 -7.3
-70.770619 42.743279 -11.6
-70.781111 42.743282 -7.0
-70.779816 42.743290 -7.9
-70.781711 42.743301 -6.7
-70.768716 42.743324 -11.9
-70.782377 42.743335 -6.4
-70.779119 42.743340 -7.9
-70.778477 42.743357 -8.2
-70.777830 42.743387 -8.5
-70.777191 42.743415 -8.8
-70.776511 42.743490 -9.1
-70.768177 42.743496 -12.2
-70.775927 42.743515 -9.4
-70.775236 42.743537 -9.8
-70.774575 42.743574 -10.1
-70.773969 42.743621 -10.4
-70.773263 42.743637 -11.0
-70.770588 42.743657 -11.9
-70.769291 42.743660 -11.9
-70.771300 42.743671 -11.9
-70.772641 42.743679 -11.3
-70.771997 42.743682 -11.6
-70.770013 42.743699 -12.2
-70.768611 42.743704 -12.2
-70.767233 42.743735 -12.8
-70.767961 42.743735 -12.5
-70.766594 42.743737 -12.8
-70.779780 42.743749 -7.9
-70.766213 42.743754 -13.1
-70.768927 42.743854 -12.2
-70.768455 42.743929 -12.2
-70.782627 42.743987 -6.4
-70.772100 42.743999 -11.9
-70.771408 42.744010 -11.9
-70.782002 42.744040 -6.4
-70.770263 42.744060 -12.2
-70.770883 42.744062 -12.2
-70.772700 42.744085 -11.3
-70.773358 42.744085 -11.0
-70.773966 42.744090 -10.7
-70.781338 42.744090 -7.0
-70.769616 42.744110 -12.5
-70.780738 42.744115 -7.3
-70.774561 42.744118 -10.4
-70.775211 42.744121 -9.8
-70.780152 42.744121 -7.6
-70.768327 42.744149 -12.8
-70.768905 42.744160 -12.5
-70.779513 42.744176 -7.9
-70.767116 42.744182 -12.8
-70.775819 42.744182 -9.4
-70.777691 42.744187 -8.5
-70.778927 42.744190 -7.9
-70.767658 42.744193 -13.1
-70.778275 42.744199 -8.2
-70.777030 42.744204 -8.8
-70.776444 42.744224 -9.1
-70.769163 42.744301 -13.1
-70.768661 42.744360 -13.1
-70.770577 42.744415 -12.2
-70.777611 42.744537 -8.5
-70.778225 42.744543 -8.2
-70.776936 42.744574 -9.1
-70.778825 42.744579 -8.2
-70.776369 42.744587 -9.1
-70.779438 42.744587 -7.9
-70.775700 42.744610 -9.8
-70.780050 42.744610 -7.9
-70.774472 42.744632 -10.4
-70.775091 42.744632 -10.1
-70.780691 42.744643 -7.6
-70.773838 42.744687 -10.7
-70.781344 42.744715 -7.3
-70.773200 42.744749 -11.0
-70.781977 42.744765 -7.0
-70.772586 42.744785 -11.6
-70.766916 42.744787 -13.7
-70.767575 42.744796 -13.4
-70.768883 42.744799 -13.1
-70.770563 42.744807 -12.2
-70.768194 42.744815 -13.1
-70.771930 42.744824 -11.9
-70.782550 42.744824 -6.7
-70.769441 42.744846 -12.8
-70.770030 42.744846 -12.8
-70.771311 42.744862 -12.2
-70.766736 42.744976 -14.0
-70.767286 42.745060 -14.0
-70.779569 42.745157 -8.2
-70.769516 42.745168 -12.8
-70.767855 42.745176 -13.4
-70.770547 42.745224 -12.2
-70.768511 42.745257 -13.1
-70.769108 42.745324 -13.1
-70.769766 42.745365 -12.8
-70.771094 42.745385 -12.2
-70.771777 42.745410 -11.6
-70.772461 42.745443 -11.6
-70.774444 42.745471 -10.4
-70.775127 42.745471 -10.1
-70.773116 42.745476 -11.3
-70.773802 42.745482 -10.7
-70.775800 42.745485 -9.8
-70.776419 42.745526 -9.4
-70.777052 42.745540 -9.1
-70.777702 42.745543 -8.8
-70.778355 42.745571 -8.5
-70.778980 42.745585 -8.5
-70.769286 42.745635 -13.4
-70.779652 42.745635 -8.2
-70.780363 42.745668 -7.9
-70.770494 42.745674 -12.2
-70.769727 42.745676 -13.1
-70.780980 42.745679 -7.9
-70.781644 42.745704 -7.6
-70.782247 42.745715 -7.3
-70.769502 42.746093 -13.7
-70.769944 42.746107 -13.4
-70.770602 42.746112 -12.8
-70.779452 42.746135 -8.5
-70.766825 42.746176 -14.6
-70.767400 42.746215 -14.3
-70.781358 42.746237 -7.9
-70.768072 42.746249 -14.0
-70.780650 42.746249 -7.9
-70.781341 42.746251 -7.9
-70.780005 42.746257 -8.2
-70.780008 42.746257 -8.2
-70.780625 42.746257 -7.9
-70.782011 42.746268 -7.6
-70.781997 42.746271 -7.6
-70.768788 42.746279 -14.0
-70.782705 42.746282 -7.0
-70.782713 42.746282 -7.0
-70.778722 42.746307 -8.5
-70.778100 42.746326 -8.8
-70.770244 42.746332 -13.1
-70.769488 42.746337 -13.7
-70.770891 42.746360 -12.5
-70.771491 42.746368 -11.9
-70.777436 42.746379 -9.1
-70.772180 42.746399 -11.6
-70.776172 42.746401 -9.8
-70.772780 42.746404 -11.3
-70.773477 42.746407 -11.0
-70.774172 42.746407 -10.7
-70.774822 42.746410 -10.4
-70.775497 42.746412 -10.1
-70.776761 42.746412 -9.4
-70.769741 42.746535 -13.7
-70.770172 42.746587 -13.4
-70.770733 42.746618 -12.8
-70.779380 42.746640 -8.5
-70.770411 42.746993 -13.1
-70.770869 42.747043 -12.8
-70.767511 42.747057 -14.6
-70.768133 42.747057 -14.6
-70.769402 42.747079 -14.0
-70.768730 42.747085 -14.3
-70.769952 42.747090 -13.4
-70.778502 42.747126 -8.8
-70.776747 42.747129 -9.8
-70.779763 42.747132 -8.5
-70.780394 42.747135 -8.2
-70.777330 42.747137 -9.4
-70.777897 42.747146 -9.1
-70.779225 42.747149 -8.5
-70.780983 42.747157 -7.9
-70.776150 42.747160 -9.8
-70.781627 42.747160 -7.9
-70.774983 42.747168 -10.7
-70.771230 42.747174 -12.5
-70.771772 42.747179 -12.2
-70.775572 42.747182 -10.1
-70.782222 42.747185 -7.6
-70.772455 42.747193 -11.9
-70.773100 42.747201 -11.6
-70.774394 42.747212 -10.7
-70.782808 42.747212 -7.6
-70.773741 42.747226 -11.3
-70.770208 42.747390 -13.4
-70.770950 42.747515 -12.8
-70.779277 42.747585 -8.8
-70.770177 42.747649 -13.1
-70.769552 42.747729 -13.7
-70.771502 42.747729 -12.5
-70.772127 42.747735 -11.9
-70.777938 42.747751 -9.1
-70.779875 42.747754 -8.5
-70.780533 42.747754 -8.8
-70.781841 42.747774 -7.9
-70.781191 42.747779 -8.5
-70.777344 42.747782 -9.4
-70.782472 42.747782 -7.6
-70.772794 42.747799 -11.6
-70.776661 42.747799 -9.8
-70.778586 42.747799 -9.1
-70.775372 42.747801 -10.7
-70.768872 42.747807 -14.0
-70.774683 42.747812 -10.7
-70.775969 42.747818 -10.4
-70.773419 42.747824 -11.3
-70.768241 42.747832 -14.3
-70.774100 42.747840 -11.0
-70.767755 42.747857 -14.9
-70.770433 42.747865 -13.4
-70.771033 42.747968 -12.8
-70.779202 42.748079 -9.4
-70.770633 42.748251 -13.4
-70.771161 42.748454 -12.8
-70.773519 42.748560 -11.9
-70.774122 42.748560 -11.6
-70.772913 42.748585 -11.9
-70.775391 42.748590 -11.0
-70.776027 42.748590 -10.7
-70.774713 42.748618 -11.0
-70.772286 42.748621 -12.2
-70.776683 42.748624 -10.4
-70.771669 42.748635 -12.5
-70.777319 42.748646 -10.4
-70.770941 42.748649 -13.1
-70.778536 42.748649 -9.8
-70.777925 42.748654 -10.1
-70.770394 42.748657 -13.4
-70.779202 42.748668 -9.4
-70.779797 42.748674 -9.4
-70.780400 42.748676 -8.8
-70.769833 42.748690 -13.7
-70.768475 42.748693 -14.3
-70.767830 42.748701 -14.9
-70.781033 42.748707 -8.5
-70.781591 42.748712 -8.2
-70.769172 42.748729 -14.0
-70.782208 42.748729 -7.9
-70.771455 42.748837 -12.8
-70.779147 42.749104 -9.8
-70.771158 42.749132 -13.4
-70.771625 42.749260 -12.8
-70.782608 42.749318 -7.6
-70.782030 42.749351 -8.2
-70.780791 42.749362 -8.8
-70.781408 42.749362 -8.5
-70.779455 42.749382 -9.4
-70.778769 42.749390 -9.8
-70.767888 42.749393 -14.9
-70.780102 42.749393 -9.1
-70.778144 42.749396 -10.1
-70.768419 42.749424 -14.6
-70.777513 42.749424 -10.4
-70.776880 42.749435 -10.7
-70.776297 42.749443 -11.0
-70.769041 42.749457 -14.0
-70.774969 42.749482 -11.6
-70.775605 42.749482 -11.3
-70.773072 42.749487 -12.5
-70.774347 42.749496 -11.9
-70.770497 42.749504 -13.7
-70.772422 42.749512 -12.8
-70.773705 42.749515 -12.2
-70.769811 42.749518 -13.7
-70.771438 42.749562 -13.4
-70.779075 42.749607 -10.1
-70.771908 42.749679 -12.8
-70.771722 42.749974 -13.1
-70.779011 42.750068 -10.1
-70.782900 42.733646 -2.1
-70.783502 42.733649 -1.8
-70.784738 42.733665 0.3
-70.784152 42.733679 -1.2
-70.783022 42.734421 -2.4
-70.783627 42.734426 -2.1
-70.784283 42.734429 -1.8
-70.784797 42.734437 -0.9
-70.783694 42.735310 -2.4
-70.782972 42.735321 -3.0
-70.785447 42.735324 0.6
-70.785050 42.735326 -1.5
-70.784405 42.735335 -1.8
-70.783508 42.736385 -2.4
-70.782922 42.736390 -3.0
-70.784225 42.736426 -2.1
-70.786141 42.736449 0.3
-70.785505 42.736451 -1.5
-70.784863 42.736468 -2.4
-70.786313 42.737004 -0.2
-70.786080 42.737051 -0.9
-70.785475 42.737076 -2.1
-70.784841 42.737124 -3.4
-70.784133 42.737143 -2.7
-70.783522 42.737154 -3.0
-70.782869 42.737199 -3.7
-70.786452 42.737987 -0.3
-70.784616 42.738001 -3.7
-70.785833 42.738004 -1.8
-70.787100 42.738004 0.6
-70.785241 42.738010 -3.4
-70.783291 42.738015 -3.7
-70.783961 42.738043 -2.7
-70.786747 42.738440 -0.6
-70.787308 42.738457 0.9
-70.786155 42.738468 -2.1
-70.785488 42.738521 -3.0
-70.784897 42.738546 -2.1
-70.784330 42.738582 -2.7
-70.783683 42.738635 -3.4
-70.782952 42.738665 -4.6
-70.787213 42.739262 -0.3
-70.786591 42.739315 -2.1
-70.785983 42.739385 -2.4
-70.785344 42.739399 -2.4
-70.783397 42.739401 -4.3
-70.784050 42.739410 -3.7
-70.784675 42.739432 -3.0
-70.787891 42.740143 0.3
-70.787288 42.740193 -0.9
-70.786602 42.740224 -1.8
-70.785994 42.740251 -2.1
-70.782891 42.740268 -5.2
-70.783497 42.740290 -4.6
-70.785394 42.740304 -2.7
-70.784736 42.740307 -3.4
-70.784116 42.740337 -4.0
-70.783958 42.740979 -4.6
-70.785872 42.740985 -2.4
-70.787144 42.740993 -1.5
-70.788436 42.740996 0.9
-70.783344 42.740999 -4.9
-70.785277 42.740999 -3.4
-70.784627 42.741001 -4.0
-70.786525 42.741026 -1.8
-70.787861 42.741037 -0.9
-70.788516 42.741179 0.6
-70.788038 42.741240 -0.6
-70.787397 42.741299 -1.8
-70.786813 42.741429 -1.8
-70.782902 42.741479 -5.5
-70.783530 42.741485 -4.9
-70.786211 42.741490 -2.7
-70.784216 42.741493 -4.6
-70.784933 42.741493 -4.0
-70.785638 42.741501 -3.4
-70.783916 42.742443 -4.9
-70.785911 42.742449 -3.4
-70.786527 42.742449 -2.7
-70.784550 42.742451 -4.6
-70.785225 42.742462 -4.0
-70.783222 42.742465 -5.2
-70.789019 42.742468 0.3
-70.787805 42.742471 -1.8
-70.788469 42.742471 -0.9
-70.787194 42.742485 -1.8
-70.782975 42.743321 -5.8
-70.783619 42.743354 -5.5
-70.784227 42.743393 -5.2
-70.784875 42.743407 -4.9
-70.785527 42.743432 -4.3
-70.786155 42.743435 -3.7
-70.786791 42.743437 -3.0
-70.787422 42.743476 -2.4
-70.788047 42.743510 -1.8
-70.788713 42.743521 -1.5
-70.789369 42.743571 0.2
-70.783125 42.743965 -5.8
-70.783811 42.743976 -5.5
-70.784508 42.743993 -5.2
-70.785122 42.744001 -4.9
-70.785730 42.744010 -4.3
-70.786386 42.744046 -3.7
-70.786972 42.744057 -3.0
-70.788955 42.744090 -1.8
-70.789463 42.744096 -0.2
-70.787600 42.744101 -2.4
-70.788311 42.744124 -2.1
-70.783186 42.744843 -6.4
-70.783800 42.744879 -5.8
-70.784425 42.744965 -5.5
-70.785066 42.745010 -4.9
-70.785711 42.745015 -4.6
-70.786994 42.745074 -3.4
-70.786341 42.745076 -4.0
-70.787591 42.745104 -3.0
-70.789602 42.745118 -1.5
-70.790055 42.745118 0.0
-70.788275 42.745124 -3.0
-70.788983 42.745129 -2.7
-70.786794 42.745618 -3.7
-70.786172 42.745632 -4.3
-70.788133 42.745635 -3.4
-70.785500 42.745643 -4.9
-70.787458 42.745643 -3.0
-70.788794 42.745646 -3.0
-70.784813 42.745649 -5.5
-70.790069 42.745649 -0.2
-70.789422 42.745671 -1.8
-70.784113 42.745679 -5.8
-70.783477 42.745699 -6.4
-70.782883 42.745740 -7.0
-70.787969 42.746232 -3.0
-70.790552 42.746235 0.3
-70.788625 42.746237 -3.4
-70.787994 42.746246 -3.0
-70.788625 42.746249 -3.4
-70.786075 42.746251 -4.9
-70.784041 42.746254 -6.1
-70.789255 42.746254 -3.0
-70.789236 42.746260 -3.0
-70.789911 42.746260 -1.2
-70.783366 42.746265 -6.7
-70.789919 42.746265 -1.2
-70.783341 42.746268 -6.7
-70.784013 42.746268 -6.1
-70.784688 42.746268 -5.5
-70.787369 42.746268 -3.4
-70.785352 42.746271 -5.2
-70.786683 42.746271 -4.0
-70.786683 42.746276 -4.0
-70.787380 42.746276 -3.4
-70.785369 42.746279 -5.2
-70.784700 42.746290 -5.5
-70.790516 42.747207 -0.6
-70.783413 42.747212 -6.7
-70.784669 42.747226 -5.8
-70.790250 42.747243 -1.2
-70.784105 42.747246 -6.4
-70.785944 42.747285 -4.9
-70.785311 42.747287 -5.5
-70.789680 42.747287 -2.7
-70.786552 42.747290 -4.6
-70.789033 42.747307 -3.0
-70.787172 42.747340 -4.0
-70.787811 42.747349 -3.4
-70.788402 42.747349 -3.0
-70.783116 42.747787 -7.3
-70.783791 42.747829 -6.7
-70.784444 42.747846 -6.4
-70.785155 42.747860 -5.8
-70.785719 42.747890 -5.2
-70.786408 42.747935 -4.9
-70.787075 42.747949 -4.3
-70.787744 42.747971 -4.0
-70.788394 42.748029 -3.4
-70.789008 42.748062 -3.0
-70.789644 42.748074 -2.4
-70.790266 42.748090 -1.8
-70.790875 42.748135 -0.2
-70.789650 42.748671 -2.7
-70.789027 42.748685 -2.7
-70.788425 42.748696 -3.7
-70.787172 42.748699 -4.6
-70.791397 42.748701 0.0
-70.784055 42.748712 -6.7
-70.785311 42.748712 -5.8
-70.785922 42.748721 -5.5
-70.790302 42.748724 -2.1
-70.786561 42.748729 -5.2
-70.783444 42.748732 -7.3
-70.790927 42.748735 -0.6
-70.782863 42.748737 -7.6
-70.784716 42.748737 -6.4
-70.787783 42.748743 -4.0
-70.783375 42.749321 -7.3
-70.784638 42.749351 -6.4
-70.785286 42.749351 -6.1
-70.783988 42.749357 -7.0
-70.785969 42.749379 -5.8
-70.786608 42.749390 -5.2
-70.787291 42.749460 -4.9
-70.787963 42.749487 -4.3
-70.788583 42.749557 -4.0
-70.789252 42.749593 -3.4
-70.789869 42.749632 -2.7
-70.790550 42.749662 -2.1
-70.791244 42.749687 -0.9
-70.808670 42.733440 0.3
-70.807400 42.733443 0.3
-70.799630 42.733471 -1.5
-70.801713 42.733526 -2.1
-70.800069 42.733535 -4.0
-70.814812 42.733537 -1.2
-70.802591 42.733562 -1.5
-70.805566 42.733562 -0.9
-70.801983 42.733571 -1.8
-70.814548 42.733599 0.6
-70.806300 42.733643 -0.2
-70.801397 42.733651 -2.4
-70.805672 42.733660 -0.3
-70.800527 42.733685 -3.4
-70.801005 42.733685 -2.1
-70.799761 42.733696 -2.4
-70.803311 42.733701 -0.3
-70.805175 42.733740 -0.9
-70.802336 42.733749 -1.8
-70.814895 42.733757 -0.3
-70.806911 42.733762 0.3
-70.804280 42.733782 0.0
-70.801833 42.733804 -2.4
-70.804950 42.733821 -0.6
-70.808273 42.733832 0.3
-70.808620 42.733849 0.3
-70.814642 42.733854 0.3
-70.799769 42.733871 -1.5
-70.815198 42.733871 -1.5
-70.805608 42.733890 -0.9
-70.806600 42.733901 -0.3
-70.807336 42.733910 0.3
-70.800291 42.733924 -4.0
-70.803761 42.733924 0.3
-70.802969 42.733951 0.0
-70.800063 42.733960 -3.7
-70.804588 42.733974 0.0
-70.801127 42.733976 -1.8
-70.800705 42.733982 -2.4
-70.806922 42.734037 0.3
-70.801447 42.734043 -2.4
-70.803300 42.734051 0.0
-70.802688 42.734090 -1.8
-70.806275 42.734096 -0.6
-70.814953 42.734099 -0.2
-70.802075 42.734110 -2.1
-70.805677 42.734115 -0.3
-70.814823 42.734146 -0.2
-70.808503 42.734176 0.3
-70.799577 42.734221 0.0
-70.804244 42.734221 0.0
-70.815378 42.734221 -1.2
-70.804794 42.734235 0.0
-70.806905 42.734251 0.0
-70.807706 42.734251 0.2
-70.800950 42.734257 -2.1
-70.799872 42.734274 -1.2
-70.800127 42.734274 -2.7
-70.801313 42.734282 -1.8
-70.806755 42.734290 -0.6
-70.803302 42.734301 0.0
-70.807281 42.734329 0.3
-70.814992 42.734362 -0.3
-70.802558 42.734365 -2.7
-70.805386 42.734365 -1.5
-70.802930 42.734387 -1.8
-70.802219 42.734390 -3.0
-70.801930 42.734396 -2.1
-70.808287 42.734396 0.3
-70.803733 42.734451 0.3
-70.803552 42.734454 0.3
-70.799841 42.734526 -0.9
-70.805725 42.734532 -0.6
-70.808798 42.734551 0.3
-70.801111 42.734574 -1.8
-70.807837 42.734574 -0.2
-70.806288 42.734576 -0.6
-70.802316 42.734582 -2.1
-70.804269 42.734585 0.2
-70.803166 42.734596 -2.4
-70.801519 42.734612 -1.5
-70.815595 42.734621 -0.3
-70.800688 42.734624 -4.0
-70.806905 42.734660 -0.9
-70.800447 42.734674 -2.7
-70.802702 42.734679 -3.4
-70.815070 42.734687 -0.6
-70.808153 42.734693 -0.3
-70.800066 42.734724 -2.7
-70.804850 42.734754 0.2
-70.807264 42.734762 -0.6
-70.802400 42.734793 -2.4
-70.799633 42.734815 0.2
-70.808648 42.734832 -0.2
-70.801227 42.734851 -1.8
-70.805133 42.734851 0.0
-70.815323 42.734868 -0.6
-70.805702 42.734896 -0.9
-70.805311 42.734904 -1.8
-70.803683 42.734912 0.3
-70.801886 42.734932 -2.1
-70.801575 42.734940 -1.5
-70.804258 42.734971 0.3
-70.803494 42.734999 -1.8
-70.806283 42.735004 -0.3
-70.800811 42.735046 -3.7
-70.800033 42.735049 -1.8
