-70.667213 43.052837 -18.0
-70.667682 43.052837 -15.8
-70.668410 43.052837 -13.7
-70.680629 43.052840 -7.0
-70.674146 43.052859 -18.6
-70.668865 43.052868 -17.4
-70.671785 43.052871 -21.3
-70.674738 43.052871 -17.4
-70.669274 43.052873 -20.4
-70.672163 43.052873 -20.7
-70.675307 43.052873 -14.3
-70.671032 43.052879 -19.8
-70.675721 43.052884 -14.0
-70.671415 43.052887 -21.9
-70.669885 43.052896 -18.9
-70.670440 43.052898 -18.3
-70.677177 43.052909 -10.1
-70.676077 43.052915 -14.3
-70.676696 43.052918 -13.1
-70.678032 43.052951 -9.8
-70.678660 43.052951 -10.1
-70.681688 43.052979 -7.3
-70.679288 43.052984 -10.4
-70.682138 43.052993 -7.3
-70.680021 43.052998 -9.1
-70.682663 43.053007 -9.1
-70.679699 43.053015 -8.8
-70.680649 43.053051 -7.6
-70.672546 43.053201 -20.1
-70.672138 43.053215 -20.1
-70.671343 43.053234 -21.0
-70.671710 43.053237 -21.0
-70.682646 43.053237 -9.8
-70.667296 43.053254 -20.1
-70.666438 43.053259 -18.0
-70.671007 43.053265 -21.3
-70.666871 43.053271 -19.8
-70.668154 43.053284 -17.1
-70.669415 43.053284 -18.0
-70.670015 43.053287 -18.3
-70.667682 43.053290 -20.1
-70.668771 43.053293 -12.8
-70.670535 43.053296 -21.0
-70.681663 43.053443 -7.3
-70.678949 43.053454 -8.8
-70.681196 43.053462 -7.6
-70.666579 43.053465 -15.8
-70.668627 43.053468 -14.9
-70.679629 43.053468 -9.1
-70.682210 43.053468 -10.4
-70.682638 43.053473 -11.0
-70.667293 43.053479 -16.2
-70.678363 43.053482 -9.4
-70.666940 43.053487 -16.8
-70.680129 43.053493 -11.6
-70.667943 43.053498 -20.1
-70.669040 43.053501 -17.7
-70.678071 43.053504 -11.3
-70.669885 43.053521 -19.2
-70.670399 43.053523 -18.3
-70.672263 43.053537 -19.8
-70.674496 43.053537 -16.8
-70.671157 43.053548 -21.0
-70.673354 43.053557 -19.5
-70.680629 43.053557 -10.1
-70.671579 43.053562 -20.4
-70.672796 43.053562 -20.1
-70.673843 43.053562 -18.9
-70.673379 43.053565 -19.5
-70.675049 43.053604 -18.6
-70.681952 43.053618 -10.7
-70.682535 43.053637 -11.0
-70.676974 43.053690 -11.9
-70.672460 43.053704 -18.9
-70.675915 43.053704 -15.5
-70.676510 43.053707 -13.7
-70.673046 43.053709 -19.2
-70.677335 43.053709 -12.8
-70.671968 43.053715 -19.8
-70.677907 43.053715 -12.2
-70.679124 43.053718 -9.8
-70.674238 43.053721 -15.8
-70.675435 43.053721 -17.4
-70.679671 43.053723 -10.4
-70.669863 43.053726 -19.5
-70.669404 43.053729 -20.1
-70.668949 43.053743 -20.1
-70.673643 43.053743 -18.9
-70.667960 43.053748 -19.5
-70.667540 43.053757 -18.3
-70.678682 43.053759 -9.8
-70.668346 43.053771 -18.3
-70.680929 43.053776 -6.7
-70.680140 43.053798 -8.2
-70.666943 43.053804 -18.3
-70.666504 43.053812 -15.8
-70.681460 43.053851 -8.8
-70.682677 43.053854 -9.1
-70.682057 43.053879 -10.4
-70.678585 43.053940 -10.1
-70.679032 43.053962 -9.4
-70.679624 43.054001 -8.2
-70.680999 43.054004 -5.5
-70.680663 43.054015 -7.3
-70.680013 43.054021 -8.8
-70.681996 43.054057 -11.3
-70.682499 43.054140 -8.5
-70.681352 43.054190 -9.1
-70.680763 43.054229 -7.9
-70.680190 43.054251 -7.9
-70.679793 43.054287 -6.7
-70.681713 43.054290 -11.3
-70.677907 43.054365 -9.1
-70.676710 43.054368 -14.0
-70.679046 43.054368 -8.5
-70.678471 43.054371 -8.8
-70.676121 43.054376 -16.5
-70.677307 43.054376 -11.0
-70.675679 43.054393 -14.0
-70.674954 43.054407 -17.7
-70.673427 43.054409 -14.9
-70.673849 43.054409 -19.5
-70.672052 43.054421 -18.9
-70.672799 43.054437 -14.9
-70.674374 43.054437 -18.9
-70.681224 43.054509 -8.5
-70.681713 43.054571 -10.1
-70.680379 43.054648 -9.1
-70.680785 43.054715 -9.1
-70.681765 43.054834 -8.8
-70.675677 43.054840 -14.0
-70.675332 43.054848 -13.4
-70.674979 43.054851 -13.7
-70.676246 43.054851 -15.2
-70.678993 43.054854 -7.3
-70.676874 43.054857 -12.2
-70.678621 43.054865 -8.8
-70.673290 43.054879 -19.2
-70.674032 43.054879 -16.8
-70.677443 43.054882 -10.4
-70.678057 43.054882 -9.1
-70.679907 43.054884 -7.9
-70.680527 43.054884 -10.4
-70.674399 43.054890 -18.3
-70.672627 43.054901 -17.1
-70.672924 43.054901 -16.2
-70.679277 43.054909 -8.5
-70.681199 43.054915 -10.7
-70.682418 43.054934 -9.8
-70.680802 43.055007 -9.4
-70.681832 43.055082 -11.0
-70.679482 43.055121 -11.9
-70.681263 43.055273 -11.3
-70.680249 43.055346 -10.1
-70.678999 43.055393 -11.9
-70.680788 43.055412 -11.6
-70.672274 43.055484 -18.3
-70.672735 43.055490 -17.7
-70.674010 43.055493 -18.0
-70.671768 43.055501 -17.4
-70.673415 43.055526 -18.3
-70.679371 43.055546 -12.8
-70.677760 43.055548 -12.2
-70.678277 43.055551 -9.8
-70.674496 43.055554 -17.7
-70.675074 43.055554 -17.1
-70.676799 43.055562 -13.4
-70.678963 43.055562 -10.4
-70.675838 43.055565 -13.4
-70.677177 43.055565 -13.7
-70.676165 43.055579 -14.9
-70.679888 43.055590 -11.3
-70.680327 43.055596 -11.0
-70.681549 43.055637 -12.2
-70.680921 43.055643 -12.8
-70.681188 43.055648 -11.3
-70.682210 43.055668 -8.8
-70.678560 43.055679 -9.8
-70.680590 43.055757 -11.9
-70.682721 43.055757 -10.1
-70.680154 43.055893 -11.6
-70.678043 43.055929 -13.4
-70.677765 43.056073 -12.5
-70.682477 43.056146 -11.9
-70.681243 43.056159 -12.2
-70.681863 43.056159 -11.9
-70.680679 43.056207 -12.2
-70.680182 43.056212 -12.5
-70.679579 43.056221 -12.8
-70.679027 43.056254 -12.8
-70.678452 43.056268 -13.4
-70.677749 43.056298 -12.8
-70.677302 43.056312 -13.7
-70.675379 43.056329 -14.6
-70.676440 43.056329 -13.1
-70.676082 43.056337 -14.3
-70.674421 43.056340 -13.7
-70.674932 43.056346 -14.9
-70.673832 43.056404 -10.1
-70.673432 43.056418 -8.2
-70.673110 43.056454 -9.8
-70.680388 43.056459 -12.5
-70.680829 43.056462 -12.5
-70.679949 43.056465 -13.1
-70.677018 43.056471 -13.1
-70.672704 43.056476 -12.2
-70.681271 43.056476 -11.9
-70.681740 43.056482 -12.8
-70.674193 43.056501 -11.9
-70.682143 43.056504 -11.6
-70.672279 43.056521 -15.5
-70.671746 43.056551 -16.2
-70.674729 43.056601 -14.3
-70.676657 43.056748 -10.1
-70.674218 43.056832 -10.4
-70.682540 43.056865 -7.0
-70.681532 43.056876 -11.3
-70.680568 43.056879 -10.1
-70.678113 43.056882 -13.1
-70.682088 43.056882 -9.8
-70.680318 43.056884 -11.6
-70.679774 43.056887 -11.9
-70.678682 43.056890 -12.5
-70.679227 43.056890 -12.2
-70.681174 43.056893 -9.8
-70.675290 43.056904 -11.9
-70.677588 43.056904 -13.1
-70.676446 43.056915 -8.5
-70.674732 43.056921 -13.1
-70.677027 43.056926 -11.9
-70.673785 43.056934 -10.1
-70.676002 43.056940 -6.7
-70.672957 43.056965 -11.3
-70.672432 43.056984 -12.5
-70.671857 43.057007 -12.8
-70.671324 43.057046 -14.6
-70.674740 43.057109 -12.5
-70.675710 43.057168 -10.4
-70.674177 43.057184 -11.3
-70.679871 43.057187 -11.6
-70.679304 43.057198 -11.9
-70.680452 43.057207 -11.3
-70.678668 43.057223 -12.2
-70.681488 43.057237 -10.1
-70.682568 43.057237 -5.8
-70.678077 43.057243 -12.8
-70.681013 43.057243 -11.0
-70.681815 43.057251 -8.5
-70.677574 43.057254 -11.0
-70.682115 43.057271 -9.1
-70.676840 43.057287 -9.8
-70.676027 43.057304 -6.7
-70.674682 43.057323 -8.2
-70.675054 43.057329 -9.1
-70.675643 43.057348 -9.1
-70.673677 43.057357 -7.9
-70.673227 43.057379 -9.1
-70.671468 43.057384 -13.1
-70.670813 43.057401 -16.8
-70.672160 43.057471 -11.3
-70.670332 43.057476 -15.5
-70.671135 43.057498 -15.5
-70.674179 43.057509 -7.3
-70.672602 43.057526 -10.7
-70.671743 43.057532 -13.1
-70.675321 43.057546 -7.0
-70.673663 43.057554 -8.2
-70.675729 43.057568 -9.1
-70.676346 43.057615 -7.6
-70.674818 43.057626 -7.9
-70.676790 43.057651 -10.4
-70.682193 43.057651 -4.6
-70.676018 43.057659 -8.8
-70.682535 43.057659 -4.9
-70.680052 43.057665 -11.0
-70.681218 43.057668 -7.6
-70.679579 43.057673 -11.9
-70.672152 43.057687 -10.1
-70.681871 43.057693 -5.2
-70.680499 43.057696 -8.2
-70.675399 43.057771 -5.8
-70.669868 43.057832 -15.8
-70.674752 43.057837 -6.1
-70.670307 43.057851 -15.2
-70.671077 43.057859 -15.2
-70.671643 43.057865 -12.8
-70.672243 43.057884 -10.7
-70.673496 43.057901 -7.0
-70.672893 43.057915 -9.1
-70.676921 43.057923 -8.8
-70.674207 43.057943 -6.4
-70.676074 43.057996 -4.6
-70.677313 43.058012 -8.8
-70.675404 43.058015 -3.7
-70.678610 43.058015 -12.2
-70.676604 43.058018 -7.9
-70.682354 43.058018 -3.7
-70.681182 43.058032 -7.9
-70.681824 43.058032 -4.6
-70.669690 43.058034 -16.5
-70.680849 43.058040 -6.4
-70.677740 43.058043 -7.6
-70.679052 43.058046 -11.6
-70.679668 43.058059 -11.3
-70.680510 43.058065 -11.3
-70.670099 43.058068 -15.2
-70.670402 43.058104 -16.2
-70.671024 43.058129 -14.0
-70.676915 43.058151 -7.0
-70.671477 43.058159 -11.0
-70.674254 43.058201 -6.1
-70.672443 43.058215 -10.7
-70.674749 43.058234 -4.9
-70.676093 43.058237 -3.7
-70.673004 43.058251 -8.2
-70.673713 43.058271 -7.3
-70.680504 43.058287 -11.9
-70.675365 43.058343 -2.4
-70.676915 43.058376 -8.5
-70.671574 43.058396 -10.7
-70.675896 43.058401 -3.0
-70.671899 43.058404 -10.7
-70.676377 43.058412 -4.0
-70.678093 43.058432 -11.9
-70.672343 43.058434 -8.8
-70.673518 43.058473 -7.9
-70.671165 43.058482 -13.1
-70.673996 43.058493 -7.6
-70.679404 43.058504 -11.9
-70.680010 43.058507 -8.8
-70.681315 43.058518 -11.6
-70.682293 43.058518 -10.7
-70.681788 43.058521 -11.0
-70.682771 43.058521 -9.8
-70.680827 43.058540 -11.9
-70.676527 43.058573 -4.3
-70.678438 43.058587 -12.5
-70.674735 43.058593 -2.7
-70.677815 43.058598 -9.1
-70.675443 43.058601 -3.0
-70.676132 43.058601 -1.8
-70.677321 43.058601 -6.4
-70.674252 43.058632 -6.4
-70.679085 43.058640 -11.9
-70.679607 43.058676 -9.8
-70.669327 43.058684 -16.2
-70.668777 43.058696 -15.2
-70.669996 43.058712 -13.4
-70.670485 43.058712 -14.0
-70.680488 43.058734 -11.6
-70.672882 43.058737 -10.1
-70.676910 43.058737 -8.2
-70.676890 43.058751 -8.2
-70.671093 43.058759 -13.1
-70.671388 43.058787 -10.1
-70.671746 43.058826 -11.6
-70.672196 43.058837 -8.2
-70.672554 43.058865 -8.2
-70.674088 43.058909 -5.8
-70.673296 43.058921 -7.0
-70.675668 43.058934 -1.8
-70.682260 43.058937 -9.4
-70.676885 43.058962 -7.6
-70.680954 43.058962 -11.3
-70.674418 43.058971 -3.7
-70.674954 43.058971 -2.7
-70.670488 43.058984 -13.4
-70.678282 43.058990 -11.9
-70.679524 43.058993 -10.1
-70.680404 43.058996 -6.4
-70.681540 43.059001 -9.4
-70.681927 43.059004 -10.7
-70.676229 43.059007 -1.8
-70.677135 43.059007 -9.8
-70.677749 43.059009 -11.0
-70.678890 43.059009 -11.6
-70.679929 43.059012 -8.2
-70.676577 43.059015 -4.3
-70.671557 43.059068 -12.5
-70.672140 43.059090 -9.1
-70.672799 43.059090 -7.3
-70.675402 43.059140 -3.0
-70.673774 43.059148 -8.8
-70.673307 43.059151 -6.7
-70.669471 43.059184 -11.9
-70.675838 43.059187 -3.7
-70.670677 43.059190 -12.2
-70.669990 43.059193 -11.9
-70.680990 43.059196 -7.6
-70.676399 43.059198 -2.4
-70.670293 43.059204 -11.3
-70.676760 43.059204 -7.9
-70.668935 43.059207 -14.9
-70.677238 43.059212 -9.8
-70.668379 43.059223 -15.8
-70.671057 43.059232 -9.8
-70.671807 43.059232 -11.9
-70.677696 43.059237 -10.7
-70.672413 43.059257 -9.1
-70.678777 43.059268 -10.4
-70.678171 43.059273 -11.6
-70.679207 43.059282 -11.0
-70.679974 43.059334 -6.1
-70.680313 43.059346 -7.6
-70.674235 43.059359 -4.9
-70.674813 43.059359 -3.0
-70.680729 43.059382 -9.4
-70.675157 43.059384 -2.7
-70.681410 43.059393 -7.9
-70.672860 43.059398 -9.1
-70.675752 43.059398 -2.7
-70.676154 43.059440 -2.4
-70.676360 43.059440 -2.7
-70.682138 43.059443 -7.6
-70.677790 43.059454 -11.6
-70.681815 43.059454 -10.1
-70.678599 43.059462 -10.1
-70.678329 43.059473 -11.6
-70.679515 43.059479 -9.8
-70.676927 43.059487 -7.6
-70.670457 43.059490 -9.1
-70.671588 43.059493 -11.3
-70.673538 43.059534 -9.8
-70.675404 43.059604 -4.0
-70.672868 43.059607 -6.1
-70.669765 43.059618 -10.7
-70.672157 43.059646 -10.4
-70.674227 43.059679 -6.1
-70.670415 43.059687 -6.7
-70.679918 43.059698 -8.2
-70.676110 43.059704 -3.7
-70.681807 43.059709 -6.7
-70.679282 43.059715 -12.2
-70.680479 43.059715 -8.2
-70.681185 43.059726 -10.7
-70.678740 43.059746 -13.1
-70.670049 43.059757 -9.4
-70.671188 43.059801 -4.9
-70.671646 43.059821 -3.7
-70.682596 43.059843 -11.0
-70.672102 43.059859 -10.1
-70.672990 43.059873 -6.1
-70.679763 43.059876 -10.7
-70.673557 43.059887 -7.9
-70.673863 43.059887 -9.8
-70.675463 43.059887 -4.3
-70.672638 43.059890 -6.7
-70.675068 43.059890 -4.9
-70.674479 43.059893 -5.5
-70.670474 43.059896 -7.3
-70.677474 43.059896 -10.4
-70.676921 43.059898 -4.9
-70.675924 43.059904 -4.9
-70.676549 43.059904 -4.3
-70.678093 43.059912 -12.5
-70.679285 43.059921 -12.8
-70.678693 43.059923 -12.8
-70.674802 43.059929 -4.9
-70.680479 43.059934 -11.9
-70.669799 43.060023 -9.1
-70.674168 43.060054 -7.6
-70.676177 43.060079 -6.1
-70.667613 43.060096 -15.5
-70.668243 43.060098 -14.0
-70.674804 43.060098 -5.8
-70.668835 43.060107 -11.6
-70.671313 43.060132 -4.9
-70.669454 43.060134 -11.3
-70.670074 43.060146 -8.2
-70.670965 43.060159 -3.7
-70.672143 43.060162 -4.6
-70.675124 43.060179 -4.3
-70.677288 43.060179 -6.1
-70.676624 43.060184 -6.7
-70.671585 43.060187 -7.3
-70.675674 43.060198 -5.5
-70.673118 43.060201 -8.2
-70.673779 43.060204 -10.7
-70.678096 43.060204 -11.9
-70.674457 43.060207 -8.5
-70.681213 43.060226 -11.9
-70.669802 43.060229 -7.6
-70.679363 43.060232 -12.5
-70.678735 43.060240 -12.8
-70.679949 43.060246 -12.2
-70.681857 43.060251 -11.6
-70.676924 43.060257 -7.0
-70.682418 43.060262 -11.3
-70.670457 43.060271 -5.5
-70.680479 43.060287 -12.2
-70.672888 43.060354 -8.2
-70.669138 43.060390 -12.5
-70.674243 43.060412 -10.4
-70.672202 43.060446 -5.2
-70.669838 43.060462 -9.1
-70.670810 43.060462 -4.6
-70.670310 43.060473 -6.7
-70.674840 43.060476 -8.5
-70.676113 43.060496 -8.5
-70.671974 43.060515 -4.3
-70.672854 43.060576 -8.8
-70.671582 43.060593 -6.4
-70.671099 43.060604 -4.0
-70.673957 43.060604 -9.4
-70.676882 43.060609 -8.2
-70.673446 43.060615 -9.4
-70.681538 43.060615 -9.8
-70.682127 43.060621 -7.9
-70.675190 43.060634 -8.5
-70.679729 43.060634 -12.2
-70.682643 43.060646 -11.6
-70.679082 43.060654 -12.5
-70.674596 43.060659 -9.8
-70.675588 43.060673 -8.5
-70.678499 43.060679 -12.2
-70.672229 43.060707 -4.9
-70.677157 43.060709 -7.0
-70.677860 43.060712 -10.1
-70.676004 43.060732 -8.8
-70.680518 43.060732 -11.9
-70.670488 43.060737 -6.4
-70.674274 43.060762 -10.1
-70.676390 43.060768 -8.2
-70.681027 43.060768 -11.6
-70.673646 43.060787 -7.3
-70.668871 43.060857 -10.7
-70.667504 43.060882 -17.4
-70.668540 43.060898 -12.2
-70.668104 43.060909 -15.2
-70.669649 43.060915 -9.4
-70.669229 43.060921 -12.5
-70.670404 43.060934 -7.3
-70.671060 43.060957 -5.2
-70.672882 43.060959 -6.4
-70.674215 43.060965 -7.3
-70.682374 43.060982 -11.9
-70.671557 43.060984 -4.6
-70.672582 43.060984 -5.5
-70.673710 43.060998 -8.5
-70.679393 43.061009 -12.2
-70.677474 43.061018 -7.9
-70.676899 43.061029 -9.1
-70.678138 43.061029 -10.4
-70.681282 43.061032 -7.6
-70.678729 43.061034 -11.6
-70.675618 43.061040 -9.4
-70.680002 43.061043 -11.9
-70.674921 43.061046 -8.2
-70.681863 43.061046 -6.7
-70.676413 43.061051 -9.1
-70.675352 43.061096 -8.2
-70.680507 43.061123 -9.4
-70.672238 43.061134 -5.5
-70.671065 43.061146 -7.3
-70.673638 43.061215 -4.6
-70.674846 43.061254 -7.6
-70.671552 43.061271 -6.4
-70.668918 43.061287 -13.7
-70.672971 43.061301 -1.8
-70.669532 43.061318 -10.4
-70.676218 43.061318 -9.4
-70.674243 43.061323 -4.3
-70.675399 43.061329 -8.8
-70.670127 43.061346 -10.1
-70.670746 43.061351 -8.8
-70.671265 43.061362 -7.6
-70.671835 43.061368 -6.4
-70.672435 43.061387 -0.9
-70.676960 43.061429 -9.4
-70.667782 43.061504 -15.8
-70.669032 43.061509 -13.1
-70.669690 43.061512 -11.9
-70.668474 43.061521 -12.5
-70.673832 43.061523 -1.8
-70.672846 43.061543 -1.8
-70.670127 43.061546 -9.8
-70.673432 43.061546 -1.8
-70.672152 43.061565 -1.5
-70.674277 43.061571 -2.1
-70.675824 43.061576 -9.4
-70.672543 43.061579 -1.5
-70.677654 43.061582 -8.8
-70.674613 43.061587 -3.7
-70.675235 43.061587 -8.8
-70.678024 43.061590 -8.5
-70.673652 43.061604 -1.5
-70.676440 43.061607 -9.4
-70.677115 43.061609 -9.8
-70.671074 43.061612 -9.4
-70.671560 43.061612 -7.9
-70.680193 43.061615 -11.0
-70.679002 43.061621 -10.7
-70.680568 43.061626 -10.4
-70.678338 43.061634 -9.4
-70.681088 43.061634 -10.1
-70.679590 43.061637 -11.0
-70.682663 43.061662 -10.4
-70.682074 43.061679 -11.0
-70.670549 43.061690 -8.5
-70.676218 43.061779 -9.4
-70.669860 43.061851 -11.0
-70.674221 43.061882 -0.3
-70.674849 43.061943 -3.7
-70.671093 43.061946 -7.3
-70.671538 43.061965 -6.4
-70.673663 43.061968 -1.5
-70.675368 43.061984 -8.5
-70.676902 43.061987 -9.4
-70.671896 43.062018 -4.9
-70.670621 43.062037 -8.8
-70.672921 43.062046 -0.6
-70.672654 43.062065 -0.9
-70.673285 43.062087 -1.8
-70.674646 43.062123 -1.5
-70.677907 43.062132 -8.8
-70.675757 43.062137 -8.8
-70.676246 43.062151 -9.1
-70.677288 43.062151 -9.1
-70.672135 43.062157 -0.6
-70.676896 43.062162 -9.8
-70.678474 43.062165 -8.5
-70.671068 43.062168 -7.0
-70.675340 43.062182 -7.0
-70.668907 43.062190 -12.2
-70.669279 43.062204 -13.1
-70.671588 43.062207 -4.3
-70.668324 43.062223 -11.6
-70.674249 43.062223 -2.1
-70.667265 43.062240 -18.3
-70.667829 43.062243 -12.8
-70.670654 43.062271 -9.1
-70.669893 43.062276 -11.6
-70.677710 43.062387 -9.8
-70.676504 43.062390 -10.1
-70.679018 43.062390 -9.1
-70.677102 43.062398 -10.1
-70.675940 43.062404 -8.5
-70.678357 43.062415 -8.8
-70.674921 43.062418 -1.2
-70.679707 43.062429 -9.4
-70.675485 43.062432 -4.0
-70.682240 43.062436 -4.0
-70.681552 43.062447 -6.7
-70.680924 43.062459 -9.4
-70.680374 43.062465 -9.4
-70.674510 43.062479 -1.8
-70.671035 43.062521 -7.9
-70.676949 43.062546 -10.4
-70.674279 43.062565 -7.9
-70.671865 43.062584 -4.3
-70.671590 43.062590 -6.1
-70.669927 43.062593 -13.4
-70.672352 43.062612 -5.5
-70.672902 43.062615 -4.3
-70.675363 43.062626 -2.1
-70.670613 43.062634 -9.4
-70.673452 43.062634 -3.7
-70.673963 43.062654 -6.7
-70.674885 43.062662 -2.4
-70.675129 43.062679 -1.8
-70.676115 43.062698 -6.7
-70.676660 43.062701 -9.1
-70.675752 43.062704 -3.7
-70.677285 43.062726 -10.4
-70.677852 43.062743 -10.4
-70.678290 43.062746 -9.8
-70.682182 43.062758 -3.4
-70.681243 43.062761 -7.9
-70.681782 43.062764 -5.2
-70.678943 43.062771 -9.1
-70.680646 43.062773 -8.8
-70.679518 43.062798 -8.8
-70.680065 43.062798 -8.8
-70.669113 43.062823 -15.2
-70.670232 43.062840 -12.5
-70.670774 43.062846 -9.1
-70.669679 43.062862 -14.3
-70.671985 43.062865 -6.1
-70.671346 43.062879 -7.0
-70.671707 43.062901 -5.5
-70.673982 43.062901 -7.0
-70.672546 43.062904 -6.4
-70.672968 43.062915 -5.5
-70.676838 43.062940 -7.0
-70.674871 43.062951 -8.2
-70.674335 43.062965 -7.9
-70.671079 43.062982 -8.2
-70.675443 43.062987 -3.4
-70.676149 43.062987 -4.3
-70.673654 43.062998 -7.6
-70.677182 43.063007 -8.8
-70.677752 43.063015 -10.7
-70.676521 43.063021 -6.1
-70.670646 43.063023 -11.0
-70.669929 43.063026 -13.7
-70.678993 43.063073 -9.4
-70.680093 43.063081 -8.8
-70.679560 43.063084 -8.8
-70.678179 43.063098 -10.4
-70.680585 43.063142 -8.2
-70.681096 43.063161 -6.7
-70.676888 43.063171 -6.7
-70.678585 43.063182 -10.1
-70.681682 43.063189 -2.4
-70.682132 43.063197 -0.3
-70.670474 43.063209 -12.8
-70.671593 43.063237 -10.7
-70.675385 43.063243 -9.1
-70.670952 43.063251 -11.3
-70.676243 43.063262 -5.2
-70.672043 43.063271 -9.8
-70.672524 43.063318 -8.2
-70.673115 43.063329 -9.1
-70.673657 43.063343 -8.8
-70.670677 43.063357 -12.2
-70.677821 43.063376 -8.8
-70.674865 43.063382 -8.5
-70.676910 43.063382 -7.6
-70.675821 43.063384 -9.1
-70.676446 43.063401 -6.7
-70.677402 43.063418 -9.8
-70.674313 43.063421 -8.8
-70.678502 43.063426 -10.1
-70.679527 43.063428 -9.1
-70.671110 43.063432 -11.6
-70.679027 43.063437 -9.4
-70.669929 43.063457 -13.4
-70.669288 43.063493 -14.6
-70.668679 43.063504 -15.5
-70.671790 43.063507 -10.4
-70.672779 43.063509 -9.8
-70.672427 43.063521 -9.8
-70.673821 43.063523 -8.8
-70.673140 43.063534 -9.1
-70.675135 43.063582 -8.8
-70.675804 43.063609 -9.4
-70.678407 43.063632 -8.8
-70.677165 43.063640 -9.4
-70.677729 43.063651 -9.1
-70.676874 43.063654 -9.1
-70.679074 43.063681 -9.1
-70.679704 43.063700 -8.2
-70.680290 43.063711 -7.9
-70.673749 43.063715 -8.8
-70.674277 43.063715 -8.2
-70.670646 43.063721 -11.9
-70.674890 43.063746 -8.5
-70.680829 43.063750 -5.5
-70.681299 43.063764 -3.0
-70.676277 43.063798 -9.1
-70.678610 43.063845 -8.5
-70.675418 43.063862 -8.5
-70.669946 43.063915 -12.8
-70.672765 43.063973 -9.1
-70.673224 43.063976 -8.8
-70.675902 43.064007 -9.1
-70.679299 43.064039 -7.0
-70.677588 43.064043 -9.1
-70.676485 43.064046 -9.1
-70.678157 43.064046 -8.5
-70.676932 43.064057 -9.4
-70.673749 43.064059 -8.2
-70.678690 43.064058 -7.9
-70.674499 43.064068 -7.9
-70.675427 43.064076 -8.2
-70.670699 43.064087 -11.6
-70.674893 43.064107 -8.2
-70.676118 43.064218 -9.1
-70.678182 43.064247 -7.0
-70.674329 43.064254 -7.9
-70.676779 43.064273 -9.4
-70.677338 43.064329 -9.4
-70.677860 43.064361 -8.5
-70.673982 43.064376 -7.9
-70.675077 43.064376 -8.2
-70.673293 43.064390 -8.2
-70.672702 43.064396 -9.1
-70.674582 43.064401 -8.2
-70.676204 43.064401 -8.8
-70.675699 43.064407 -8.5
-70.670188 43.064412 -12.5
-70.669227 43.064415 -13.7
-70.672032 43.064418 -9.8
-70.671415 43.064426 -10.7
-70.670768 43.064434 -11.6
-70.669657 43.064459 -10.7
-70.678882 43.064470 -7.9
-70.676907 43.064504 -8.5
-70.675377 43.064507 -7.9
-70.679774 43.064545 -5.8
-70.678152 43.064561 -8.5
-70.679321 43.064564 -6.7
-70.674890 43.064573 -7.9
-70.682563 43.064586 -2.1
-70.681071 43.064592 -4.3
-70.682277 43.064592 -0.6
-70.681357 43.064595 -0.9
-70.681743 43.064617 -2.1
-70.676082 43.064662 -8.2
-70.676604 43.064676 -8.5
-70.677885 43.064692 -8.2
-70.677527 43.064697 -8.2
-70.678957 43.064711 -7.0
-70.678479 43.064736 -7.9
-70.679418 43.064753 -6.4
-70.679879 43.064772 -5.5
-70.675454 43.064809 -7.9
-70.676913 43.064842 -8.2
-70.678188 43.064908 -7.6
-70.671532 43.064957 -10.4
-70.672574 43.064957 -9.1
-70.672002 43.064959 -9.8
-70.673035 43.064962 -8.8
-70.673599 43.064965 -7.9
-70.675332 43.064982 -8.2
-70.674188 43.064984 -7.9
-70.674768 43.064984 -8.2
-70.675932 43.065009 -8.2
-70.678832 43.065028 -7.0
-70.679415 43.065028 -6.4
-70.676454 43.065031 -8.2
-70.680568 43.065031 -3.7
-70.677071 43.065033 -8.2
-70.677621 43.065053 -7.9
-70.680015 43.065053 -5.5
-70.681124 43.065058 -4.9
-70.681654 43.065083 -4.6
-70.682193 43.065095 -4.6
-70.668196 43.065115 -15.2
-70.682699 43.065133 -4.3
-70.668779 43.065157 -14.6
-70.669324 43.065196 -13.4
-70.669915 43.065234 -12.5
-70.678204 43.065236 -7.3
-70.670435 43.065290 -12.2
-70.671010 43.065348 -11.0
-70.675335 43.065387 -8.8
-70.674915 43.065393 -8.8
-70.673815 43.065401 -8.2
-70.675863 43.065406 -8.5
-70.676354 43.065406 -8.2
-70.671599 43.065412 -10.1
-70.674407 43.065415 -8.5
-70.672232 43.065446 -9.1
-70.672815 43.065468 -5.5
-70.678452 43.065503 -6.7
-70.673129 43.065507 -3.4
-70.673490 43.065537 -5.8
-70.674079 43.065568 -9.1
-70.671232 43.065654 -10.1
-70.670679 43.065673 -11.3
-70.672482 43.065684 -8.5
-70.671854 43.065693 -9.4
-70.672957 43.065743 -3.0
-70.673843 43.065768 -6.1
-70.674315 43.065768 -10.1
-70.673302 43.065771 -2.4
-70.674927 43.065792 -10.4
-70.675527 43.065814 -9.8
-70.682668 43.065817 -3.7
-70.676132 43.065825 -9.1
-70.676718 43.065828 -8.2
-70.677318 43.065833 -7.6
-70.677971 43.065833 -7.0
-70.679193 43.065836 -5.8
-70.678524 43.065839 -6.4
-70.680779 43.065842 -4.0
-70.680274 43.065847 -4.6
-70.682154 43.065847 -3.7
-70.681110 43.065861 -2.7
-70.681710 43.065867 -3.7
-70.679815 43.065875 -5.2
-70.673382 43.065962 -2.7
-70.673813 43.065971 -5.5
-70.674232 43.066008 -9.1
-70.672404 43.066012 -9.4
-70.675824 43.066022 -10.1
-70.674702 43.066025 -10.7
-70.671838 43.066029 -9.8
-70.675274 43.066031 -10.4
-70.671329 43.066043 -10.1
-70.670782 43.066057 -11.0
-70.672913 43.066059 -7.6
-70.670399 43.066073 -11.3
-70.672193 43.066193 -9.4
-70.671582 43.066212 -10.1
-70.670999 43.066215 -10.7
-70.670077 43.066246 -11.6
-70.672782 43.066251 -9.4
-70.670454 43.066273 -11.3
-70.674002 43.066272 -10.4
-70.673390 43.066287 -9.4
-70.682627 43.066289 -3.7
-70.674640 43.066295 -10.7
-70.675229 43.066314 -10.7
-70.675888 43.066350 -10.1
-70.676457 43.066381 -9.4
-70.676985 43.066403 -7.9
-70.677385 43.066406 -6.7
-70.678457 43.066442 -2.7
-70.678060 43.066450 -5.5
-70.682432 43.066514 -3.0
-70.682163 43.066750 -2.1
-70.691868 43.050093 -13.1
-70.690763 43.050098 -9.8
-70.691302 43.050098 -11.9
-70.696252 43.050098 -11.9
-70.695140 43.050101 -12.2
-70.695690 43.050101 -12.2
-70.692396 43.050121 -13.4
-70.690124 43.050123 -12.8
-70.692935 43.050126 -13.1
-70.689815 43.050132 -12.2
-70.693490 43.050134 -12.8
-70.694065 43.050134 -12.5
-70.688246 43.050137 -14.9
-70.689427 43.050137 -14.3
-70.688860 43.050148 -15.5
-70.686465 43.050165 -14.6
-70.683863 43.050168 -8.2
-70.687032 43.050168 -14.9
-70.683488 43.050171 -10.4
-70.685802 43.050173 -13.4
-70.684310 43.050184 -8.5
-70.684682 43.050184 -10.1
-70.685271 43.050184 -10.4
-70.694582 43.050187 -12.5
-70.687652 43.050193 -14.3
-70.682882 43.050212 -12.8
-70.698640 43.050379 -12.8
-70.698190 43.050382 -12.5
-70.696677 43.050387 -11.9
-70.697796 43.050387 -12.2
-70.697396 43.050393 -11.9
-70.699057 43.050407 -12.2
-70.696310 43.050426 -11.9
-70.695832 43.050437 -11.9
-70.694224 43.050462 -12.2
-70.695413 43.050462 -12.2
-70.693638 43.050476 -12.5
-70.693088 43.050482 -12.8
-70.683377 43.050507 -8.8
-70.682849 43.050512 -11.6
-70.685521 43.050512 -10.7
-70.691982 43.050512 -10.1
-70.692540 43.050515 -11.3
-70.685060 43.050518 -10.1
-70.691315 43.050523 -7.0
-70.686021 43.050529 -11.6
-70.687102 43.050529 -13.1
-70.684038 43.050532 -6.7
-70.684415 43.050534 -8.5
-70.686546 43.050540 -14.3
-70.690618 43.050551 -5.5
-70.689763 43.050557 -9.1
-70.687588 43.050559 -11.9
-70.688849 43.050562 -10.1
-70.688090 43.050571 -10.4
-70.689235 43.050573 -10.4
-70.694460 43.050615 -12.2
-70.695013 43.050615 -11.9
-70.695032 43.050615 -11.9
-70.695521 43.050640 -12.2
-70.693899 43.050651 -12.5
-70.693318 43.050659 -13.1
-70.699257 43.050673 -12.5
-70.698685 43.050690 -12.5
-70.692221 43.050701 -7.9
-70.692721 43.050704 -10.7
-70.698027 43.050715 -12.2
-70.691588 43.050734 -6.7
-70.697388 43.050751 -11.6
-70.690504 43.050768 -6.1
-70.689754 43.050801 -7.6
-70.690115 43.050801 -8.5
-70.696710 43.050821 -11.6
-70.687507 43.050840 -10.4
-70.696079 43.050843 -11.9
-70.688782 43.050848 -9.4
-70.688065 43.050851 -10.1
-70.686999 43.050865 -11.3
-70.695304 43.050871 -11.9
-70.685177 43.050876 -11.9
-70.686446 43.050876 -12.5
-70.694815 43.050904 -11.9
-70.685832 43.050907 -12.5
-70.683929 43.050909 -8.2
-70.684604 43.050912 -7.9
-70.683374 43.050923 -7.3
-70.698443 43.050923 -12.2
-70.695988 43.051043 -11.6
-70.695127 43.051046 -11.9
-70.696443 43.051057 -11.6
-70.696938 43.051059 -11.6
-70.694393 43.051068 -12.2
-70.695552 43.051073 -11.6
-70.693940 43.051096 -11.9
-70.697910 43.051098 -11.9
-70.693543 43.051104 -11.9
-70.699335 43.051115 -11.6
-70.698410 43.051126 -12.5
-70.698960 43.051146 -12.2
-70.693160 43.051148 -11.6
-70.691943 43.051171 -7.3
-70.692693 43.051179 -11.3
-70.691557 43.051182 -7.0
-70.691157 43.051184 -7.0
-70.692352 43.051196 -8.2
-70.697238 43.051198 -11.6
-70.690607 43.051223 -7.9
-70.696677 43.051223 -11.3
-70.690127 43.051234 -8.5
-70.696168 43.051246 -11.3
-70.688218 43.051254 -8.2
-70.685113 43.051259 -10.4
-70.687879 43.051259 -8.5
-70.684715 43.051262 -7.9
-70.688599 43.051262 -7.6
-70.689052 43.051262 -7.9
-70.687213 43.051268 -9.8
-70.684321 43.051279 -7.6
-70.686149 43.051279 -12.5
-70.683754 43.051290 -6.4
-70.686588 43.051293 -11.3
-70.695657 43.051296 -11.6
-70.685685 43.051304 -12.2
-70.695032 43.051309 -11.6
-70.694690 43.051312 -11.9
-70.699335 43.051323 -11.0
-70.683046 43.051329 -7.3
-70.693565 43.051337 -11.3
-70.694171 43.051346 -11.9
-70.692929 43.051379 -11.3
-70.691813 43.051396 -8.2
-70.692404 43.051409 -9.1
-70.690268 43.051421 -7.9
-70.690635 43.051434 -8.8
-70.687110 43.051437 -10.1
-70.687585 43.051437 -9.1
-70.688746 43.051440 -7.9
-70.689863 43.051443 -7.9
-70.688227 43.051446 -8.2
-70.686602 43.051457 -11.9
-70.689463 43.051459 -9.1
-70.686060 43.051479 -12.8
-70.691229 43.051479 -5.8
-70.685513 43.051521 -11.6
-70.683010 43.051568 -6.1
-70.699171 43.051579 -11.9
-70.697907 43.051601 -11.9
-70.698629 43.051601 -12.5
-70.684110 43.051648 -7.3
-70.697321 43.051648 -11.3
-70.683652 43.051651 -7.6
-70.688415 43.051659 -7.6
-70.688743 43.051659 -7.0
-70.689360 43.051659 -7.0
-70.696754 43.051659 -11.6
-70.693652 43.051662 -8.5
-70.696049 43.051662 -11.6
-70.684546 43.051671 -7.3
-70.684918 43.051671 -9.1
-70.689924 43.051671 -7.6
-70.696377 43.051671 -11.3
-70.690332 43.051682 -8.5
-70.695457 43.051684 -11.6
-70.694874 43.051693 -11.9
-70.692071 43.051698 -10.1
-70.692599 43.051698 -9.8
-70.691204 43.051701 -8.2
-70.694249 43.051701 -10.1
-70.693204 43.051707 -9.8
-70.690663 43.051712 -6.7
-70.685735 43.051721 -11.3
-70.686504 43.051796 -10.7
-70.687432 43.051796 -9.1
-70.686865 43.051801 -9.4
-70.687985 43.051848 -7.0
-70.684713 43.051854 -8.8
-70.685138 43.051854 -9.1
-70.683663 43.051859 -7.6
-70.683088 43.051862 -8.2
-70.684202 43.051868 -6.4
-70.686193 43.051882 -11.9
-70.694560 43.052021 -8.8
-70.695302 43.052043 -11.6
-70.696868 43.052059 -11.0
-70.697929 43.052065 -11.3
-70.696313 43.052068 -11.3
-70.697443 43.052068 -11.0
-70.698493 43.052068 -11.9
-70.695799 43.052073 -11.6
-70.689699 43.052082 -7.9
-70.688893 43.052084 -7.0
-70.690188 43.052084 -8.8
-70.688582 43.052090 -7.3
-70.699493 43.052090 -12.5
-70.692427 43.052096 -8.5
-70.693852 43.052096 -5.8
-70.691899 43.052098 -7.9
-70.691188 43.052104 -8.2
-70.692807 43.052107 -7.6
-70.686721 43.052109 -10.1
-70.690785 43.052112 -9.1
-70.699015 43.052118 -12.5
-70.689282 43.052126 -6.4
-70.694257 43.052146 -6.7
-70.683468 43.052151 -6.4
-70.684679 43.052162 -8.5
-70.684968 43.052162 -7.9
-70.685288 43.052162 -10.1
-70.684115 43.052187 -6.4
-70.693471 43.052190 -5.2
-70.685865 43.052196 -10.7
-70.687010 43.052204 -9.1
-70.693154 43.052209 -5.5
-70.686190 43.052215 -9.4
-70.686438 43.052237 -9.8
-70.694840 43.052237 -10.7
-70.692365 43.052254 -7.3
-70.690954 43.052268 -8.5
-70.687660 43.052284 -7.9
-70.689257 43.052293 -6.1
-70.688321 43.052304 -7.9
-70.691496 43.052304 -9.1
-70.691949 43.052321 -9.8
-70.688921 43.052323 -6.4
-70.690490 43.052365 -8.2
-70.690199 43.052379 -8.2
-70.686740 43.052387 -8.2
-70.689860 43.052404 -8.5
-70.699160 43.052409 -12.5
-70.698768 43.052421 -12.2
-70.684440 43.052423 -7.9
-70.698318 43.052423 -11.9
-70.697799 43.052426 -11.3
-70.697157 43.052429 -11.3
-70.684832 43.052432 -8.8
-70.688627 43.052434 -7.0
-70.685735 43.052440 -10.4
-70.696793 43.052440 -11.6
-70.683999 43.052448 -6.7
-70.687243 43.052448 -7.9
-70.687707 43.052484 -8.2
-70.688054 43.052484 -7.9
-70.686352 43.052487 -11.3
-70.682918 43.052493 -7.9
-70.683599 43.052496 -7.0
-70.693310 43.052512 -7.6
-70.693663 43.052512 -6.4
-70.694357 43.052526 -8.2
-70.694754 43.052540 -10.7
-70.695665 43.052557 -11.9
-70.692293 43.052559 -6.4
-70.692649 43.052568 -5.2
-70.695229 43.052568 -12.2
-70.696060 43.052582 -11.9
-70.691510 43.052601 -7.0
-70.685082 43.052609 -11.0
-70.698604 43.052621 -12.2
-70.684268 43.052629 -9.4
-70.685527 43.052629 -11.3
-70.690338 43.052629 -6.7
-70.699146 43.052629 -12.5
-70.687477 43.052646 -8.5
-70.683165 43.052648 -6.4
-70.684582 43.052648 -9.4
-70.698093 43.052654 -11.9
-70.697674 43.052662 -11.3
-70.697202 43.052673 -11.3
-70.683663 43.052679 -7.6
-70.688954 43.052684 -4.9
-70.688485 43.052712 -6.1
-70.689299 43.052715 -5.2
-70.696490 43.052718 -11.9
-70.686979 43.052732 -8.5
-70.689660 43.052732 -6.1
-70.690002 43.052762 -8.2
-70.695618 43.052790 -12.5
-70.690702 43.052793 -7.0
-70.691660 43.052793 -6.1
-70.696115 43.052804 -12.2
-70.686265 43.052809 -9.4
-70.688027 43.052815 -7.3
-70.692293 43.052823 -6.7
-70.692746 43.052823 -5.8
-70.695113 43.052826 -12.5
-70.693813 43.052837 -8.2
-70.696896 43.052837 -11.6
-70.699404 43.052843 -13.1
-70.693474 43.052848 -7.0
-70.698757 43.052848 -12.5
-70.693090 43.052851 -8.2
-70.697552 43.052851 -11.6
-70.694135 43.052857 -8.2
-70.698090 43.052857 -11.9
-70.687432 43.052873 -8.2
-70.694568 43.052876 -9.1
-70.691949 43.052904 -5.2
-70.691310 43.052923 -6.1
-70.690413 43.052946 -6.4
-70.689843 43.052959 -7.3
-70.689179 43.052962 -6.4
-70.688510 43.052971 -6.7
-70.688835 43.052973 -6.1
-70.683482 43.052984 -7.9
-70.685874 43.052990 -9.8
-70.685293 43.052998 -10.4
-70.686224 43.052998 -8.2
-70.687149 43.053001 -7.6
-70.687796 43.053007 -8.2
-70.686579 43.053009 -9.8
-70.683949 43.053015 -9.8
-70.687460 43.053065 -7.9
-70.698729 43.053079 -11.9
-70.697771 43.053090 -11.6
-70.698252 43.053090 -11.9
-70.699249 43.053104 -12.5
-70.684657 43.053121 -10.4
-70.696838 43.053121 -12.2
-70.697307 43.053123 -11.9
-70.689371 43.053146 -6.4
-70.690182 43.053254 -5.8
-70.688646 43.053284 -6.4
-70.690727 43.053287 -6.1
-70.689132 43.053290 -5.8
-70.687460 43.053293 -9.1
-70.686121 43.053298 -7.9
-70.691227 43.053304 -6.7
-70.689815 43.053315 -7.9
-70.692779 43.053323 -8.8
-70.693265 43.053329 -9.8
-70.694310 43.053329 -10.1
-70.686971 43.053334 -7.0
-70.693796 43.053334 -8.8
-70.691704 43.053337 -5.2
-70.694777 43.053346 -10.7
-70.686682 43.053348 -9.4
-70.685643 43.053354 -9.8
-70.695179 43.053365 -13.4
-70.685113 43.053368 -11.6
-70.684585 43.053382 -12.2
-70.697957 43.053401 -11.6
-70.697324 43.053407 -11.6
-70.698693 43.053407 -11.9
-70.683679 43.053412 -11.6
-70.684179 43.053412 -10.1
-70.696946 43.053423 -12.2
-70.683118 43.053426 -11.0
-70.692060 43.053426 -3.7
-70.699252 43.053434 -12.5
-70.695863 43.053459 -13.4
-70.690385 43.053462 -5.5
-70.696396 43.053462 -12.8
-70.688043 43.053468 -6.7
-70.687465 43.053504 -7.6
-70.686321 43.053529 -8.8
-70.688785 43.053554 -8.8
-70.685332 43.053582 -12.2
-70.685702 43.053598 -11.3
-70.689357 43.053598 -9.1
-70.684507 43.053601 -12.5
-70.690660 43.053607 -5.8
-70.689785 43.053609 -8.2
-70.691682 43.053637 -4.0
-70.683118 43.053643 -8.5
-70.692674 43.053651 -5.2
-70.684818 43.053662 -11.6
-70.687038 43.053668 -7.3
-70.683460 43.053679 -10.7
-70.692432 43.053682 -5.5
-70.693027 43.053682 -7.6
-70.693638 43.053684 -9.8
-70.683993 43.053690 -11.6
-70.694515 43.053696 -10.1
-70.694874 43.053696 -10.4
-70.694157 43.053709 -10.7
-70.695443 43.053709 -12.8
-70.688046 43.053732 -7.9
-70.696085 43.053732 -13.4
-70.696613 43.053732 -12.8
-70.686274 43.053765 -8.2
-70.697168 43.053765 -11.9
-70.691093 43.053773 -4.0
-70.697721 43.053787 -11.3
-70.698315 43.053801 -11.6
-70.687510 43.053812 -7.0
-70.690485 43.053832 -6.7
-70.689977 43.053834 -9.8
-70.698932 43.053833 -11.6
-70.683154 43.053854 -8.5
-70.688896 43.053871 -10.7
-70.689410 43.053873 -10.1
-70.691465 43.053884 -4.0
-70.684727 43.053887 -12.2
-70.688371 43.053909 -10.1
-70.687168 43.053940 -8.2
-70.686746 43.053948 -10.1
-70.686252 43.053954 -11.0
-70.685696 43.053971 -10.1
-70.685129 43.053996 -9.4
-70.691729 43.054018 -3.4
-70.683585 43.054054 -9.1
-70.692079 43.054107 -6.1
-70.686021 43.054112 -8.8
-70.683071 43.054115 -12.2
-70.684318 43.054126 -7.9
-70.692627 43.054129 -4.6
-70.684893 43.054134 -8.8
-70.693877 43.054143 -9.1
-70.693363 43.054151 -9.8
-70.685465 43.054154 -6.1
-70.686602 43.054162 -6.4
-70.687379 43.054165 -7.3
-70.687027 43.054173 -7.9
-70.688043 43.054179 -8.5
-70.690710 43.054182 -9.1
-70.691807 43.054182 -4.9
-70.691068 43.054187 -8.8
-70.688560 43.054190 -8.8
-70.691468 43.054201 -7.0
-70.689040 43.054221 -9.4
-70.692402 43.054232 -5.8
-70.689604 43.054237 -8.5
-70.690199 43.054254 -9.8
-70.686299 43.054257 -7.0
-70.692071 43.054326 -8.5
-70.692818 43.054334 -7.0
-70.693252 43.054343 -9.4
-70.686132 43.054371 -4.3
-70.683477 43.054376 -12.5
-70.693729 43.054376 -9.1
-70.694360 43.054376 -10.7
-70.688040 43.054398 -5.5
-70.684796 43.054404 -8.8
-70.694721 43.054409 -9.8
-70.684121 43.054412 -9.4
-70.685457 43.054423 -7.0
-70.695027 43.054423 -10.7
-70.695593 43.054423 -11.9
-70.696177 43.054459 -13.1
-70.696760 43.054479 -13.1
-70.686793 43.054482 -4.9
-70.686346 43.054518 -4.0
-70.687357 43.054518 -4.6
-70.697352 43.054517 -11.9
-70.688693 43.054529 -7.3
-70.693063 43.054529 -8.8
-70.689265 43.054554 -8.8
-70.697885 43.054553 -11.3
-70.698415 43.054581 -11.3
-70.689857 43.054604 -11.0
-70.693390 43.054623 -7.9
-70.684810 43.054629 -8.2
-70.685332 43.054651 -6.4
-70.688049 43.054654 -4.9
-70.698974 43.054656 -11.6
-70.686132 43.054715 -4.0
-70.687438 43.054765 -5.8
-70.693671 43.054768 -8.5
-70.682921 43.054921 -7.9
-70.683321 43.054954 -7.3
-70.683665 43.054965 -8.5
-70.684224 43.054990 -8.5
-70.685004 43.054993 -7.3
-70.685449 43.054996 -7.3
-70.686429 43.055007 -4.9
-70.686965 43.055007 -4.3
-70.688443 43.055007 -6.7
-70.685910 43.055021 -4.6
-70.688035 43.055021 -6.1
-70.696557 43.055022 -12.5
-70.687465 43.055026 -5.5
-70.689057 43.055032 -9.8
-70.697171 43.055036 -11.9
-70.689663 43.055051 -10.7
-70.692193 43.055057 -7.9
-70.695935 43.055057 -11.0
-70.695285 43.055059 -10.4
-70.690927 43.055068 -11.6
-70.691315 43.055071 -8.8
-70.694049 43.055071 -8.5
-70.690332 43.055073 -11.6
-70.697763 43.055078 -11.3
-70.692790 43.055082 -8.2
-70.694652 43.055090 -8.8
-70.698332 43.055092 -11.0
-70.693424 43.055112 -7.6
-70.698890 43.055145 -11.3
-70.685310 43.055157 -5.8
-70.688615 43.055259 -8.5
-70.684974 43.055279 -7.3
-70.687488 43.055293 -6.4
-70.688027 43.055309 -6.1
-70.686507 43.055318 -6.1
-70.685902 43.055329 -5.8
-70.686838 43.055340 -6.7
-70.686193 43.055382 -5.5
-70.685365 43.055384 -6.7
-70.684246 43.055421 -8.5
-70.695074 43.055426 -9.8
-70.683424 43.055454 -9.4
-70.682935 43.055468 -9.8
-70.695388 43.055522 -8.5
-70.687074 43.055532 -8.5
-70.687965 43.055537 -6.7
-70.686165 43.055548 -6.4
-70.685027 43.055634 -9.4
-70.686404 43.055679 -6.7
-70.690663 43.055723 -12.8
-70.696624 43.055722 -11.0
-70.689299 43.055729 -9.4
-70.693024 43.055729 -8.8
-70.696102 43.055728 -10.4
-70.691249 43.055732 -12.8
-70.694240 43.055732 -7.9
-70.688718 43.055740 -9.4
-70.690018 43.055740 -11.0
-70.691860 43.055743 -11.3
-70.694835 43.055742 -7.9
-70.695424 43.055747 -7.0
-70.692424 43.055754 -11.0
-70.693627 43.055754 -7.6
-70.687554 43.055765 -8.8
-70.688271 43.055768 -9.4
-70.687065 43.055776 -8.8
-70.687932 43.055779 -7.9
-70.683310 43.055790 -9.1
-70.686740 43.055793 -7.0
-70.697132 43.055800 -11.6
-70.684004 43.055807 -8.8
-70.697718 43.055820 -11.0
-70.684285 43.055823 -8.2
-70.685377 43.055826 -8.8
-70.684638 43.055829 -9.8
-70.685024 43.055848 -8.2
-70.686157 43.055851 -7.9
-70.685768 43.055854 -6.4
-70.698282 43.055853 -10.7
-70.698849 43.055858 -10.7
-70.696279 43.055920 -11.0
-70.699402 43.055922 -11.3
-70.687532 43.056018 -10.1
-70.698674 43.056045 -11.3
-70.686460 43.056054 -10.4
-70.698243 43.056083 -11.3
-70.685404 43.056104 -10.4
-70.686124 43.056104 -10.4
-70.697785 43.056108 -11.3
-70.684229 43.056129 -11.0
-70.684793 43.056134 -10.7
-70.683582 43.056140 -11.3
-70.688021 43.056140 -9.8
-70.683043 43.056148 -10.7
-70.697240 43.056147 -11.3
-70.690590 43.056171 -10.7
-70.687152 43.056176 -9.8
-70.690974 43.056193 -11.3
-70.690174 43.056196 -10.7
-70.691354 43.056196 -11.0
-70.691985 43.056207 -11.6
-70.696768 43.056217 -9.4
-70.696265 43.056222 -8.8
-70.692410 43.056246 -9.8
-70.692918 43.056257 -10.4
-70.695746 43.056256 -8.8
-70.694046 43.056281 -7.3
-70.693357 43.056290 -9.1
-70.687529 43.056312 -9.4
-70.695293 43.056311 -7.3
-70.694904 43.056317 -7.0
-70.683399 43.056368 -10.7
-70.683802 43.056371 -10.4
-70.686096 43.056379 -9.8
-70.697371 43.056378 -11.3
-70.684965 43.056409 -8.5
-70.696613 43.056414 -7.9
-70.684565 43.056418 -9.1
-70.686460 43.056418 -9.8
-70.698135 43.056417 -11.3
-70.685840 43.056423 -10.1
-70.699004 43.056422 -11.0
-70.698577 43.056425 -11.0
-70.695924 43.056436 -8.2
-70.687043 43.056443 -9.1
-70.687543 43.056498 -8.8
-70.699449 43.056506 -11.6
-70.688777 43.056512 -9.8
-70.689304 43.056540 -9.4
-70.682885 43.056543 -11.9
-70.688038 43.056548 -5.5
-70.683490 43.056568 -10.7
-70.683885 43.056576 -11.0
-70.684688 43.056609 -8.2
-70.685452 43.056609 -9.1
-70.697899 43.056631 -11.0
-70.686160 43.056648 -8.5
-70.693010 43.056683 -6.7
-70.693854 43.056717 -6.1
-70.692596 43.056721 -6.4
-70.694729 43.056722 -6.4
-70.691265 43.056726 -8.2
-70.691968 43.056726 -8.5
-70.695154 43.056725 -7.0
-70.690729 43.056729 -7.9
-70.695704 43.056728 -6.1
-70.696307 43.056728 -6.1
-70.690077 43.056732 -8.8
-70.688285 43.056734 -5.5
-70.687863 43.056737 -4.6
-70.688904 43.056746 -7.9
-70.687313 43.056751 -4.9
-70.689518 43.056751 -9.8
-70.690421 43.056751 -6.1
-70.696902 43.056772 -8.5
-70.685824 43.056776 -3.4
-70.686468 43.056782 -4.9
-70.697454 43.056811 -10.1
-70.685193 43.056815 -5.5
-70.698063 43.056831 -10.4
-70.683038 43.056851 -7.6
-70.698596 43.056850 -10.4
-70.684560 43.056854 -5.5
-70.699246 43.056853 -10.7
-70.683413 43.056857 -8.5
-70.683996 43.056859 -8.5
-70.688029 43.056929 -4.0
-70.685827 43.056934 -1.8
-70.686235 43.056940 -4.0
-70.685452 43.056962 -4.9
-70.686965 43.056990 -4.0
-70.686463 43.056998 -3.7
-70.687521 43.057032 -4.6
-70.699065 43.057050 -10.4
-70.688357 43.057084 -6.4
-70.698629 43.057103 -10.4
-70.689018 43.057123 -9.1
-70.685193 43.057126 -3.4
-70.689577 43.057165 -9.4
-70.690513 43.057179 -5.8
-70.690146 43.057193 -8.5
-70.690804 43.057215 -7.6
-70.687243 43.057218 -4.0
-70.691302 43.057237 -8.2
-70.683152 43.057301 -6.4
-70.691996 43.057303 -6.7
-70.683610 43.057315 -4.3
-70.692474 43.057339 -8.8
-70.684179 43.057346 -4.3
-70.693124 43.057356 -6.1
-70.698299 43.057364 -7.9
-70.693768 43.057383 -7.0
-70.684615 43.057404 -2.7
-70.694215 43.057406 -7.6
-70.694785 43.057422 -7.3
-70.685035 43.057434 -0.9
-70.687521 43.057451 -2.7
-70.695315 43.057458 -7.0
-70.687752 43.057465 -3.4
-70.688249 43.057468 -3.7
-70.695882 43.057467 -6.1
-70.688049 43.057471 -2.4
-70.696235 43.057486 -5.5
-70.687243 43.057496 -3.0
-70.696754 43.057497 -6.7
-70.686188 43.057512 -3.4
-70.686729 43.057512 -3.0
-70.686974 43.057515 -2.4
-70.685671 43.057521 -1.8
-70.697699 43.057558 -7.0
-70.698090 43.057586 -7.9
-70.698604 43.057617 -10.1
-70.683052 43.057651 -4.0
-70.699077 43.057650 -10.4
-70.697165 43.057814 -4.0
-70.691332 43.057822 -7.6
-70.691690 43.057825 -7.0
-70.697424 43.057845 -5.2
-70.697782 43.057850 -5.8
-70.696882 43.057861 -4.0
-70.685874 43.057884 -0.6
-70.692321 43.057883 -2.4
-70.695932 43.057889 -4.3
-70.698332 43.057895 -7.9
-70.692679 43.057900 -3.7
-70.692921 43.057900 -2.7
-70.696435 43.057911 -5.2
-70.693165 43.057914 -3.4
-70.695552 43.057914 -5.8
-70.698799 43.057917 -9.4
-70.684813 43.057923 -2.4
-70.685343 43.057926 -0.6
-70.694190 43.057928 -5.8
-70.695110 43.057931 -5.5
-70.693854 43.057933 -2.7
-70.693568 43.057936 -2.1
-70.699343 43.057942 -10.4
-70.694729 43.057950 -4.0
-70.684274 43.057954 -2.4
-70.688465 43.057954 -0.9
-70.691935 43.057961 -5.2
-70.688910 43.057965 -3.0
-70.683102 43.057971 -7.3
-70.683752 43.057979 -5.2
-70.689304 43.057984 -5.2
-70.689740 43.058009 -5.5
-70.690243 43.058020 -5.2
-70.697438 43.058020 -4.6
-70.690879 43.058058 -3.0
-70.691263 43.058083 -6.4
-70.692024 43.058150 -7.9
-70.692721 43.058192 -6.1
-70.693032 43.058203 -4.0
-70.693393 43.058203 -4.0
-70.693757 43.058217 -3.4
-70.694027 43.058228 -2.4
-70.694696 43.058242 -5.8
-70.694374 43.058250 -2.4
-70.696054 43.058258 -2.7
-70.695593 43.058264 -3.0
-70.695257 43.058267 -4.3
-70.696368 43.058267 -1.2
-70.690893 43.058281 -2.7
-70.697071 43.058286 -2.1
-70.697699 43.058300 -3.4
-70.699157 43.058306 -8.8
-70.698138 43.058320 -6.1
-70.690515 43.058322 -4.9
-70.698657 43.058322 -6.4
-70.690240 43.058378 -3.7
-70.691415 43.058408 -5.8
-70.691963 43.058461 -3.4
-70.683285 43.058479 -7.9
-70.692227 43.058520 -7.3
-70.690877 43.058545 -5.2
-70.691460 43.058642 -4.3
-70.690874 43.058736 -3.0
-70.687938 43.058759 -2.4
-70.688349 43.058765 -2.7
-70.688832 43.058778 -3.7
-70.689288 43.058778 -2.7
-70.691579 43.058797 -5.2
-70.689807 43.058803 -4.9
-70.683996 43.058807 -3.4
-70.691213 43.058808 -5.8
-70.690371 43.058828 -5.5
-70.692229 43.058833 -6.7
-70.692788 43.058839 -4.6
-70.693265 43.058839 -1.2
-70.683496 43.058851 -4.3
-70.697057 43.058861 -2.7
-70.696793 43.058878 -1.5
-70.683035 43.058890 -9.1
-70.693757 43.058892 -3.7
-70.694129 43.058892 -4.6
-70.697493 43.058892 -4.3
-70.697974 43.058900 -6.4
-70.698590 43.058911 -7.6
-70.694577 43.058914 -5.2
-70.695104 43.058928 -2.1
-70.698965 43.058939 -7.9
-70.699393 43.058942 -8.2
-70.691904 43.058950 -7.0
-70.691088 43.059078 -4.0
-70.691474 43.059086 -5.5
-70.690440 43.059100 -2.7
-70.692290 43.059161 -6.4
-70.690874 43.059197 -5.8
-70.690254 43.059228 -0.6
-70.691932 43.059253 -6.4
-70.690504 43.059342 -5.2
-70.696352 43.059342 -1.2
-70.696593 43.059350 -4.6
-70.691460 43.059361 -6.1
-70.697204 43.059383 -3.4
-70.696990 43.059386 -4.0
-70.683363 43.059398 -7.9
-70.697515 43.059397 -6.1
-70.683879 43.059401 -4.0
-70.697899 43.059408 -5.8
-70.682874 43.059432 -9.8
-70.698488 43.059442 -6.4
-70.698910 43.059456 -6.7
-70.699346 43.059456 -6.7
-70.692288 43.059492 -6.1
-70.690896 43.059595 -4.6
-70.690502 43.059631 -2.4
-70.689929 43.059639 -3.7
-70.689715 43.059647 -1.5
-70.693324 43.059658 -5.8
-70.683263 43.059665 -9.1
-70.682877 43.059679 -10.1
-70.691904 43.059681 -6.1
-70.692757 43.059681 -5.2
-70.691460 43.059692 -5.8
-70.690268 43.059695 -2.7
-70.693807 43.059703 -5.2
-70.684365 43.059718 -3.7
-70.697077 43.059728 -3.4
-70.684060 43.059737 -3.0
-70.683754 43.059746 -7.3
-70.694327 43.059745 -4.0
-70.694599 43.059747 -0.9
-70.694890 43.059778 -1.5
-70.695249 43.059781 -0.6
-70.695590 43.059789 -0.3
-70.695793 43.059808 -0.6
-70.692290 43.059822 -5.8
-70.696288 43.059822 -2.1
-70.696763 43.059822 -3.4
-70.698299 43.059831 -6.1
-70.697335 43.059833 -5.5
-70.698821 43.059836 -6.1
-70.697996 43.059839 -5.5
-70.699268 43.059839 -6.4
-70.690896 43.059847 -4.0
-70.691965 43.059892 -5.8
-70.690449 43.059956 -3.7
-70.691471 43.060003 -5.5
-70.690282 43.060117 -3.0
-70.689118 43.060133 -0.3
-70.689802 43.060136 -2.1
-70.688902 43.060142 -0.6
-70.689399 43.060150 -0.9
-70.691193 43.060158 -2.7
-70.692207 43.060161 -5.8
-70.688518 43.060164 -0.9
-70.691732 43.060189 -5.5
-70.693179 43.060203 -5.8
-70.692685 43.060211 -5.8
-70.684124 43.060218 -5.5
-70.683549 43.060234 -9.1
-70.684532 43.060254 -3.0
-70.694138 43.060253 -4.9
-70.690471 43.060258 -2.7
-70.693649 43.060258 -5.2
-70.683252 43.060265 -5.5
-70.694657 43.060295 -4.0
-70.695268 43.060311 -0.6
-70.697071 43.060339 -4.3
-70.696010 43.060345 -1.2
-70.698090 43.060347 -5.5
-70.696596 43.060361 -4.0
-70.697577 43.060361 -5.2
-70.698624 43.060367 -6.1
-70.691435 43.060375 -5.2
-70.699118 43.060389 -6.7
-70.690221 43.060433 -2.7
-70.692343 43.060506 -5.5
-70.692879 43.060528 -5.5
-70.693235 43.060528 -5.2
-70.691974 43.060542 -5.5
-70.690549 43.060583 -3.0
-70.693865 43.060589 -4.9
-70.684054 43.060629 -6.1
-70.683093 43.060648 -10.7
-70.683638 43.060651 -9.1
-70.690885 43.060664 -4.3
-70.690190 43.060695 -2.1
-70.696724 43.060706 -3.7
-70.687938 43.060728 -3.0
-70.687438 43.060731 -2.7
-70.686954 43.060739 -3.4
-70.688390 43.060739 -3.0
-70.689049 43.060753 -0.6
-70.689360 43.060753 -1.2
-70.690363 43.060770 -2.7
-70.691399 43.060792 -4.9
-70.689852 43.060800 -1.8
-70.692360 43.060856 -5.2
-70.691910 43.060861 -4.9
-70.685007 43.060875 -2.4
-70.693704 43.060878 -4.6
-70.693221 43.060883 -4.9
-70.694235 43.060886 -4.0
-70.692782 43.060889 -5.2
-70.694679 43.060900 -4.0
-70.684632 43.060903 -3.4
-70.684088 43.060915 -8.2
-70.699302 43.060920 -5.5
-70.695413 43.060922 -1.8
-70.695029 43.060931 -1.8
-70.690907 43.060933 -4.3
-70.696674 43.060953 -4.6
-70.683568 43.060957 -10.4
-70.695882 43.060958 -2.4
-70.696315 43.060961 -3.0
-70.697193 43.060972 -4.6
-70.682979 43.060982 -11.3
-70.691485 43.061014 -4.6
-70.697682 43.061020 -5.2
-70.698113 43.061031 -5.5
-70.692760 43.061045 -4.6
-70.698943 43.061056 -5.2
-70.690249 43.061064 -3.0
-70.699488 43.061083 -7.0
-70.691968 43.061114 -4.0
-70.695654 43.061120 -3.4
-70.695410 43.061133 -3.0
-70.692365 43.061136 -4.3
-70.690538 43.061161 -2.7
-70.694104 43.061164 -4.3
-70.693185 43.061183 -4.6
-70.693543 43.061206 -4.3
-70.690927 43.061247 -4.0
-70.697543 43.061320 -3.0
-70.692960 43.061325 -4.3
-70.697018 43.061408 -3.4
-70.690538 43.061420 -3.7
-70.691988 43.061422 -3.7
-70.690235 43.061445 -3.4
-70.694210 43.061445 -4.0
-70.692374 43.061472 -3.7
-70.693693 43.061550 -3.7
-70.693143 43.061583 -3.7
-70.686874 43.061642 -6.1
-70.697235 43.061642 -4.0
-70.696957 43.061645 -3.4
-70.694543 43.061650 -3.7
-70.683271 43.061653 -10.1
