-70.791317 42.811545 -11.6
-70.784376 42.811584 -18.0
-70.785087 42.811617 -17.7
-70.790706 42.811628 -12.5
-70.797284 42.811631 -4.6
-70.785681 42.811692 -17.4
-70.790053 42.811692 -13.1
-70.794901 42.811703 -8.2
-70.788226 42.811709 -15.5
-70.794281 42.811734 -8.8
-70.797639 42.811734 -4.3
-70.786348 42.811742 -17.4
-70.789498 42.811742 -13.7
-70.786973 42.811745 -17.1
-70.793823 42.811784 -9.1
-70.793214 42.811800 -9.8
-70.790978 42.811820 -12.2
-70.791498 42.811823 -11.6
-70.792706 42.811831 -10.1
-70.788676 42.811839 -14.9
-70.792092 42.811850 -10.7
-70.799362 42.811936 -2.1
-70.798814 42.811945 -2.1
-70.797537 42.811953 -3.0
-70.798170 42.811953 -2.1
-70.796914 42.811964 -4.3
-70.787556 42.811967 -13.4
-70.788012 42.812003 -12.5
-70.796078 42.812011 -6.4
-70.783726 42.812020 -18.0
-70.786659 42.812023 -16.8
-70.795526 42.812045 -7.3
-70.794867 42.812086 -8.2
-70.794184 42.812092 -8.8
-70.786120 42.812098 -17.1
-70.785523 42.812128 -17.4
-70.793514 42.812153 -9.4
-70.797892 42.812181 -2.4
-70.792862 42.812198 -10.1
-70.792195 42.812203 -10.7
-70.797328 42.812211 -3.4
-70.788467 42.812236 -11.0
-70.791601 42.812250 -11.6
-70.790923 42.812264 -11.9
-70.790223 42.812303 -12.8
-70.789573 42.812317 -13.4
-70.788962 42.812342 -14.0
-70.784337 42.812392 -18.0
-70.787687 42.812398 -12.2
-70.787006 42.812400 -16.5
-70.785070 42.812409 -17.4
-70.785762 42.812409 -17.1
-70.788153 42.812409 -11.0
-70.782998 42.812417 -18.6
-70.786381 42.812425 -17.1
-70.783723 42.812428 -18.3
-70.797737 42.812489 -2.7
-70.796576 42.812503 -4.3
-70.798214 42.812509 -2.4
-70.798837 42.812511 -2.4
-70.799392 42.812534 -2.4
-70.796876 42.812578 -3.4
-70.795948 42.812611 -6.1
-70.795412 42.812634 -7.0
-70.797334 42.812645 -3.0
-70.797681 42.812764 -2.7
-70.796381 42.812803 -4.6
-70.788151 42.812817 -15.5
-70.798256 42.812825 -3.0
-70.794539 42.812834 -7.9
-70.795003 42.812834 -7.3
-70.795698 42.812836 -6.4
-70.796951 42.812836 -3.4
-70.793806 42.812870 -8.8
-70.798887 42.812870 -3.0
-70.785528 42.812898 -17.1
-70.786392 42.812931 -14.0
-70.793237 42.812945 -9.4
-70.787201 42.812959 -13.1
-70.797217 42.812959 -2.7
-70.787789 42.812975 -15.5
-70.798473 42.812975 -3.4
-70.792576 42.812984 -9.8
-70.796681 42.813006 -2.4
-70.788892 42.813064 -14.0
-70.791945 42.813067 -10.7
-70.788462 42.813078 -14.6
-70.789487 42.813084 -13.4
-70.795162 42.813114 -7.3
-70.791262 42.813131 -11.3
-70.790706 42.813192 -11.9
-70.787889 42.813220 -16.2
-70.798734 42.813259 -4.0
-70.790120 42.813264 -12.8
-70.796156 42.813309 -4.6
-70.799473 42.813361 -2.1
-70.797153 42.813373 -3.4
-70.796820 42.813378 -3.0
-70.788920 42.813381 -14.0
-70.783384 42.813395 -19.2
-70.784612 42.813448 -18.0
-70.783995 42.813450 -18.3
-70.797709 42.813459 -4.0
-70.785298 42.813464 -17.1
-70.788253 42.813470 -14.6
-70.787126 42.813473 -16.2
-70.796514 42.813473 -2.7
-70.798306 42.813489 -4.0
-70.799164 42.813489 -2.7
-70.786503 42.813492 -14.0
-70.786012 42.813495 -13.1
-70.798848 42.813528 -3.4
-70.797170 42.813623 -3.7
-70.787753 42.813700 -16.2
-70.796303 42.813761 -3.0
-70.795631 42.813781 -4.9
-70.794078 42.813786 -8.2
-70.794798 42.813798 -7.0
-70.796909 42.813800 -3.7
-70.792742 42.813809 -9.8
-70.793459 42.813814 -9.1
-70.791314 42.813825 -11.3
-70.792062 42.813831 -10.7
-70.799476 42.813834 -1.5
-70.797587 42.813836 -3.7
-70.798273 42.813836 -3.0
-70.798923 42.813836 -1.8
-70.784831 42.813861 -14.6
-70.788803 42.813861 -14.3
-70.790623 42.813892 -11.9
-70.789981 42.813898 -12.8
-70.789303 42.813920 -13.7
-70.785948 42.813973 -17.1
-70.786673 42.813973 -16.8
-70.787273 42.813973 -16.5
-70.785273 42.813981 -17.7
-70.788048 42.813989 -15.5
-70.796445 42.813989 -2.7
-70.783873 42.814031 -16.2
-70.784387 42.814053 -14.3
-70.783217 42.814059 -19.8
-70.796770 42.814145 -1.8
-70.797434 42.814159 -2.4
-70.798634 42.814159 -3.0
-70.797956 42.814161 -2.7
-70.793542 42.814184 -8.8
-70.797123 42.814184 -2.4
-70.799167 42.814184 -3.0
-70.796131 42.814217 -3.4
-70.787509 42.814225 -16.5
-70.795037 42.814267 -6.4
-70.795692 42.814284 -4.6
-70.788923 42.814300 -14.3
-70.794412 42.814300 -7.3
-70.793892 42.814306 -8.2
-70.794114 42.814523 -7.6
-70.793298 42.814556 -9.1
-70.792689 42.814575 -9.8
-70.795695 42.814578 -4.3
-70.796362 42.814578 -1.8
-70.794831 42.814586 -6.4
-70.799326 42.814606 -2.7
-70.792012 42.814617 -10.4
-70.791331 42.814628 -11.0
-70.797162 42.814628 -2.4
-70.798609 42.814628 -3.4
-70.797934 42.814634 -3.4
-70.789989 42.814642 -12.5
-70.790664 42.814642 -11.6
-70.789392 42.814700 -13.4
-70.788014 42.814764 -15.2
-70.788656 42.814764 -14.3
-70.787409 42.814767 -15.8
-70.786831 42.814853 -17.1
-70.785570 42.814931 -17.7
-70.786139 42.814931 -18.0
-70.784864 42.814961 -18.6
-70.796123 42.814973 -1.8
-70.784217 42.814978 -19.2
-70.793101 42.814978 -9.8
-70.783598 42.814986 -19.8
-70.782906 42.815023 -19.8
-70.796589 42.815081 -3.0
-70.797187 42.815092 -2.7
-70.797773 42.815114 -2.4
-70.799431 42.815120 -3.7
-70.798320 42.815123 -3.0
-70.798909 42.815123 -3.4
-70.786956 42.815145 -17.4
-70.789234 42.815220 -14.3
-70.795970 42.815239 -2.4
-70.792931 42.815317 -10.1
-70.790245 42.815323 -12.5
-70.795917 42.815456 -3.4
-70.798939 42.815595 -4.6
-70.786656 42.815603 -17.7
-70.797873 42.815620 -3.0
-70.798426 42.815620 -3.7
-70.792448 42.815623 -10.1
-70.796301 42.815623 -2.1
-70.797337 42.815623 -3.7
-70.791906 42.815625 -10.7
-70.796867 42.815625 -3.0
-70.795103 42.815628 -6.7
-70.795673 42.815628 -4.6
-70.793145 42.815636 -9.4
-70.793787 42.815636 -8.5
-70.791306 42.815645 -11.6
-70.794453 42.815648 -7.6
-70.789295 42.815670 -14.6
-70.790637 42.815670 -12.5
-70.790003 42.815673 -13.4
-70.788748 42.815703 -14.9
-70.788178 42.815761 -15.8
-70.792798 42.815828 -10.7
-70.787584 42.815839 -16.5
-70.786953 42.815850 -17.4
-70.786239 42.815859 -17.7
-70.785584 42.815895 -18.3
-70.784884 42.815898 -18.9
-70.784298 42.815903 -19.2
-70.783676 42.815920 -19.8
-70.795764 42.815920 -4.9
-70.782856 42.815942 -20.1
-70.799195 42.816039 -4.3
-70.786506 42.816056 -18.0
-70.789476 42.816156 -14.6
-70.792639 42.816173 -11.0
-70.797728 42.816225 -2.4
-70.799251 42.816275 -4.0
-70.798601 42.816289 -3.7
-70.796231 42.816311 -3.4
-70.794923 42.816317 -7.6
-70.794276 42.816323 -8.5
-70.793131 42.816367 -10.1
-70.793651 42.816386 -9.4
-70.795562 42.816406 -6.1
-70.797901 42.816409 -3.4
-70.797228 42.816420 -2.7
-70.796889 42.816431 -2.4
-70.790401 42.816442 -13.7
-70.796573 42.816442 -3.0
-70.789162 42.816453 -15.2
-70.791148 42.816456 -12.8
-70.788467 42.816461 -15.8
-70.786637 42.816464 -17.7
-70.795845 42.816470 -5.2
-70.787823 42.816478 -16.8
-70.785914 42.816481 -18.3
-70.787195 42.816484 -17.7
-70.791795 42.816489 -12.2
-70.789801 42.816492 -14.6
-70.785251 42.816503 -19.2
-70.792342 42.816525 -11.6
-70.799037 42.816553 -1.8
-70.798701 42.816556 -1.5
-70.795153 42.816559 -7.3
-70.784581 42.816564 -19.5
-70.798364 42.816573 -3.4
-70.783926 42.816609 -19.8
-70.797684 42.816614 -2.7
-70.794412 42.816628 -8.5
-70.793753 42.816634 -9.8
-70.793089 42.816673 -10.4
-70.783278 42.816695 -20.4
-70.806728 42.800173 -2.7
-70.805737 42.800211 -5.2
-70.807045 42.800214 -0.6
-70.806331 42.800220 -4.0
-70.804451 42.800223 -5.5
-70.805137 42.800225 -5.5
-70.803851 42.800231 -4.9
-70.803112 42.800245 -3.0
-70.802623 42.800250 -3.7
-70.801376 42.800300 -6.4
-70.802009 42.800314 -4.9
-70.800031 42.800320 -8.5
-70.800737 42.800334 -7.6
-70.807134 42.800659 -0.6
-70.806373 42.800775 -4.3
-70.805628 42.800828 -5.2
-70.804920 42.800848 -4.6
-70.804245 42.800914 -3.7
-70.803531 42.800920 -2.7
-70.800137 42.800936 -8.5
-70.801403 42.800948 -7.0
-70.802942 42.800956 -3.7
-70.802231 42.800967 -5.5
-70.800742 42.800970 -7.9
-70.807242 42.801142 -0.6
-70.804345 42.801359 -2.4
-70.807331 42.801578 -0.9
-70.799709 42.801764 -8.8
-70.803576 42.801773 -3.7
-70.801662 42.801775 -7.0
-70.802303 42.801775 -6.1
-70.800337 42.801789 -8.2
-70.801098 42.801795 -7.9
-70.804214 42.801803 -2.1
-70.802987 42.801811 -4.6
-70.804876 42.801823 -1.5
-70.805478 42.801856 -1.5
-70.804520 42.801861 -1.8
-70.807178 42.801895 -1.8
-70.806109 42.801898 -3.0
-70.806631 42.801898 -5.2
-70.806976 42.801898 -3.0
-70.807426 42.802156 -1.2
-70.804570 42.802411 -1.5
-70.806584 42.802553 -5.5
-70.805956 42.802564 -1.8
-70.803984 42.802617 -2.4
-70.807428 42.802617 -1.2
-70.805259 42.802631 -0.9
-70.801964 42.802661 -7.0
-70.803367 42.802661 -4.3
-70.802678 42.802667 -5.5
-70.801264 42.802695 -7.6
-70.799917 42.802706 -8.8
-70.800631 42.802706 -8.2
-70.804742 42.802909 -1.2
-70.807453 42.803150 -0.3
-70.804826 42.803325 -0.9
-70.801395 42.803553 -7.3
-70.800623 42.803556 -7.6
-70.801948 42.803561 -6.4
-70.804009 42.803561 -1.8
-70.803367 42.803564 -3.7
-70.807473 42.803573 -0.9
-70.799914 42.803575 -8.2
-70.802739 42.803578 -4.9
-70.804695 42.803609 -0.9
-70.805387 42.803634 -0.3
-70.805992 42.803686 -0.3
-70.807178 42.803736 -3.7
-70.806662 42.803759 -4.3
-70.804898 42.803878 -0.6
-70.807517 42.803964 0.0
-70.807573 42.804303 0.0
-70.805892 42.804361 -0.6
-70.807103 42.804364 -3.7
-70.806384 42.804367 -2.7
-70.806748 42.804367 -4.3
-70.805678 42.804409 0.3
-70.805273 42.804459 0.0
-70.804942 42.804464 0.0
-70.804078 42.804495 -1.2
-70.804628 42.804495 -0.3
-70.803476 42.804506 -2.4
-70.801678 42.804528 -6.1
-70.802884 42.804528 -4.0
-70.802298 42.804531 -4.9
-70.800442 42.804592 -7.9
-70.801051 42.804592 -7.3
-70.807639 42.804592 -0.6
-70.799926 42.804595 -7.9
-70.805062 42.804861 -0.2
-70.807770 42.805134 -0.3
-70.805176 42.805317 -0.9
-70.807453 42.805481 -2.7
-70.806895 42.805484 -3.7
-70.805509 42.805489 -1.5
-70.806184 42.805489 -2.1
-70.806534 42.805489 -4.0
-70.799553 42.805503 -8.2
-70.800220 42.805506 -7.6
-70.800826 42.805506 -6.7
-70.804548 42.805536 0.2
-70.804817 42.805539 -0.6
-70.803564 42.805542 -0.9
-70.804145 42.805542 -0.3
-70.801576 42.805559 -5.2
-70.802201 42.805559 -4.0
-70.802959 42.805559 -2.1
-70.807887 42.805592 -0.6
-70.805245 42.805859 -1.5
-70.807484 42.805931 -2.7
-70.806206 42.805950 -4.0
-70.806876 42.805950 -3.7
-70.805592 42.805953 -1.8
-70.804312 42.805964 0.2
-70.804976 42.805981 -1.2
-70.803759 42.805984 -0.3
-70.807964 42.806053 0.0
-70.803098 42.806081 -1.5
-70.802548 42.806084 -2.7
-70.801945 42.806089 -4.0
-70.801392 42.806139 -5.2
-70.800101 42.806156 -7.0
-70.800698 42.806156 -6.4
-70.799576 42.806181 -7.9
-70.805289 42.806273 -1.8
-70.808106 42.806561 -0.3
-70.807487 42.806586 -2.4
-70.807009 42.806706 -3.0
-70.806384 42.806717 -4.0
-70.805717 42.806748 -3.0
-70.805409 42.806753 -2.1
-70.804970 42.806798 -1.5
-70.799651 42.806806 -7.0
-70.800409 42.806814 -6.4
-70.804414 42.806867 -1.2
-70.803701 42.806881 -1.5
-70.801764 42.806889 -3.7
-70.802495 42.806889 -1.8
-70.803106 42.806889 -1.2
-70.801081 42.806892 -5.2
-70.807345 42.806989 -2.7
-70.808176 42.807045 -0.3
-70.806789 42.807089 -3.7
-70.806203 42.807167 -4.3
-70.804884 42.807173 -0.9
-70.805401 42.807178 -1.2
-70.804303 42.807220 -1.5
-70.803620 42.807256 -1.8
-70.803042 42.807286 -0.9
-70.802434 42.807334 -1.2
-70.801864 42.807345 -2.1
-70.801201 42.807353 -4.3
-70.799884 42.807384 -7.0
-70.800562 42.807384 -5.8
-70.805437 42.807461 -1.2
-70.808181 42.807514 -0.3
-70.814607 42.807748 -3.0
-70.805495 42.807759 -3.4
-70.814246 42.807914 -4.3
-70.814738 42.807959 -4.0
-70.808214 42.807981 -0.3
-70.807884 42.808064 -2.1
-70.813893 42.808064 -1.8
-70.807278 42.808125 -3.0
-70.805212 42.808128 -3.7
-70.806598 42.808128 -4.0
-70.805889 42.808131 -4.6
-70.804578 42.808136 -2.4
-70.803339 42.808139 -1.2
-70.803926 42.808139 -2.4
-70.801956 42.808167 -1.8
-70.802648 42.808178 -1.8
-70.801259 42.808189 -2.4
-70.800601 42.808195 -4.0
-70.799914 42.808200 -6.1
-70.814499 42.808225 -7.6
-70.814110 42.808289 -4.6
-70.805564 42.808295 -4.3
-70.815046 42.808325 -1.5
-70.808306 42.808456 0.3
-70.815268 42.808542 -2.1
-70.814777 42.808567 -7.0
-70.803970 42.808617 -0.9
-70.803401 42.808625 -1.5
-70.802845 42.808628 -1.8
-70.802253 42.808642 -1.8
-70.804506 42.808648 -0.9
-70.801748 42.808653 -2.1
-70.805114 42.808659 -2.7
-70.801184 42.808661 -2.1
-70.800626 42.808678 -3.0
-70.800081 42.808686 -4.9
-70.814435 42.808703 -6.4
-70.806245 42.808748 -4.0
-70.806259 42.808761 -4.0
-70.805567 42.808764 -4.3
-70.807912 42.808839 -1.8
-70.815504 42.808845 -4.6
-70.815152 42.808848 -7.3
-70.807592 42.808870 -2.7
-70.814688 42.808920 -4.0
-70.806967 42.808931 -3.7
-70.808356 42.808959 -0.2
-70.805792 42.809023 -4.6
-70.806370 42.809061 -4.0
-70.804456 42.809084 -1.2
-70.804776 42.809095 -0.9
-70.805120 42.809098 -1.2
-70.815760 42.809114 -1.2
-70.814893 42.809123 -6.4
-70.803851 42.809192 -2.1
-70.805623 42.809228 -4.3
-70.815479 42.809236 -4.6
-70.803226 42.809261 -2.1
-70.801842 42.809298 -3.0
-70.802087 42.809300 -1.5
-70.802573 42.809300 -3.0
-70.801264 42.809303 -3.4
-70.800003 42.809306 -3.7
-70.800637 42.809306 -2.4
-70.815974 42.809306 -4.0
-70.808376 42.809445 -0.6
-70.815188 42.809456 -2.4
-70.805562 42.809570 0.6
-70.815810 42.809631 -6.7
-70.815435 42.809645 -5.8
-70.808473 42.809886 -0.9
-70.805587 42.809892 -0.9
-70.801839 42.809895 -3.7
-70.802487 42.809895 -2.7
-70.805934 42.809911 -4.3
-70.815585 42.809911 -2.4
-70.803126 42.809914 -2.4
-70.804484 42.809917 -1.5
-70.803853 42.809920 -2.1
-70.805012 42.809920 -0.9
-70.808189 42.809923 -1.5
-70.806342 42.809942 -4.3
-70.807634 42.809953 -3.0
-70.801223 42.809961 -3.7
-70.806901 42.809975 -4.0
-70.800556 42.809981 -2.4
-70.799970 42.810025 -3.0
-70.815815 42.810070 -2.7
-70.805601 42.810228 -3.7
-70.808539 42.810348 -0.9
-70.816113 42.810436 -4.6
-70.808228 42.810556 -1.5
-70.807831 42.810559 -3.0
-70.807123 42.810586 -3.7
-70.806509 42.810614 -4.3
-70.805948 42.810620 -4.6
-70.804545 42.810623 -1.8
-70.804926 42.810623 -1.5
-70.805206 42.810623 -1.8
-70.799501 42.810648 -2.4
-70.804012 42.810653 -2.1
-70.800137 42.810661 -1.2
-70.803284 42.810667 -2.7
-70.800751 42.810703 -4.3
-70.801984 42.810728 -4.0
-70.802648 42.810734 -3.0
-70.805628 42.810734 -4.3
-70.801339 42.810748 -4.0
-70.808578 42.810948 -1.2
-70.805581 42.811186 -3.7
-70.808689 42.811298 -0.9
-70.808387 42.811309 -1.2
-70.807798 42.811325 -2.4
-70.807131 42.811359 -3.4
-70.799531 42.811370 -1.5
-70.800103 42.811392 -0.9
-70.806506 42.811420 -3.7
-70.805234 42.811425 -4.3
-70.805851 42.811425 -4.0
-70.802053 42.811448 -3.7
-70.800781 42.811450 -4.6
-70.804601 42.811467 -4.0
-70.801381 42.811473 -4.3
-70.802678 42.811475 -3.0
-70.803306 42.811489 -3.0
-70.803964 42.811492 -3.4
-70.805573 42.811698 -4.3
-70.808698 42.811820 -0.6
-70.806534 42.811828 -3.7
-70.805937 42.811848 -4.3
-70.804584 42.811853 -4.9
-70.805242 42.811853 -4.6
-70.807237 42.811853 -2.7
-70.808239 42.811881 -1.2
-70.807781 42.811886 -1.5
-70.803884 42.811889 -4.6
-70.801876 42.811911 -4.0
-70.802581 42.811914 -3.7
-70.803198 42.811914 -3.4
-70.801264 42.811934 -4.3
-70.800578 42.811936 -2.4
-70.800064 42.811942 -2.1
-70.805589 42.812248 -4.6
-70.808702 42.812298 -0.6
-70.804792 42.812484 -4.9
-70.804184 42.812489 -4.9
-70.803551 42.812550 -4.0
-70.800053 42.812578 -2.4
-70.802953 42.812595 -3.7
-70.802403 42.812600 -3.7
-70.800667 42.812606 -2.1
-70.801234 42.812617 -2.1
-70.801814 42.812620 -3.4
-70.805570 42.812636 -4.3
-70.808729 42.812789 -0.2
-70.808198 42.812798 -0.6
-70.807606 42.812850 -1.5
-70.799514 42.812881 -3.0
-70.806951 42.812911 -2.4
-70.806334 42.812914 -3.7
-70.805756 42.812925 -4.3
-70.805189 42.812936 -4.6
-70.800134 42.812939 -2.7
-70.804473 42.812961 -5.2
-70.800751 42.812967 -2.4
-70.801426 42.812981 -2.4
-70.803914 42.813000 -4.9
-70.802048 42.813003 -4.0
-70.802587 42.813020 -3.7
-70.803231 42.813023 -4.0
-70.801642 42.813209 -2.7
-70.808729 42.813223 -0.3
-70.805603 42.813236 -4.3
-70.800501 42.813261 -2.7
-70.800970 42.813261 -2.4
-70.800017 42.813364 -2.1
-70.804792 42.813589 -4.6
-70.804359 42.813592 -4.9
-70.803823 42.813645 -4.6
-70.808702 42.813648 -0.2
-70.801942 42.813689 -3.0
-70.803203 42.813689 -4.3
-70.802631 42.813714 -3.7
-70.801356 42.813717 -2.1
-70.801589 42.813831 -2.7
-70.800259 42.813836 -1.2
-70.800951 42.813836 -1.8
-70.805592 42.813853 -3.7
-70.802228 42.813856 -3.7
-70.804212 42.813861 -4.9
-70.805012 42.813870 -4.6
-70.803570 42.813875 -4.6
-70.806264 42.813886 -2.4
-70.807545 42.813895 -0.9
-70.802928 42.813898 -4.3
-70.806895 42.813903 -1.5
-70.808668 42.814142 -0.3
-70.799692 42.814186 -2.7
-70.806003 42.814214 -2.7
-70.805606 42.814217 -3.0
-70.800401 42.814231 -2.1
-70.800076 42.814242 -3.0
-70.801589 42.814270 -1.8
-70.802192 42.814270 -2.4
-70.801026 42.814273 -1.8
-70.804039 42.814295 -4.6
-70.804717 42.814298 -4.3
-70.803434 42.814300 -4.0
-70.802803 42.814306 -3.4
-70.805542 42.814484 -2.7
-70.804989 42.814520 -3.4
-70.804345 42.814545 -4.3
-70.802945 42.814550 -2.7
-70.803601 42.814556 -4.0
-70.800384 42.814559 -2.7
-70.802209 42.814561 -2.4
-70.801526 42.814589 -1.2
-70.800820 42.814592 -2.1
-70.799878 42.814595 -2.4
-70.808657 42.814670 -0.3
-70.805317 42.814920 -2.7
-70.808643 42.815048 -0.3
-70.804756 42.815050 -3.4
-70.802917 42.815056 -1.5
-70.803626 42.815056 -2.7
-70.804089 42.815067 -3.4
-70.801770 42.815073 -2.4
-70.802403 42.815073 -1.8
-70.800698 42.815081 -2.7
-70.801148 42.815092 -2.4
-70.800103 42.815098 -2.7
-70.805226 42.815356 -1.8
-70.804601 42.815361 -2.4
-70.804092 42.815370 -2.1
-70.802809 42.815392 -1.5
-70.803098 42.815392 -1.2
-70.802184 42.815395 -2.4
-70.801651 42.815411 -3.0
-70.803409 42.815420 -1.5
-70.801112 42.815453 -2.4
-70.805492 42.815481 -1.8
-70.800578 42.815489 -2.7
-70.804981 42.815520 -2.1
-70.799976 42.815525 -4.0
-70.804245 42.815528 -2.4
-70.803684 42.815545 -1.2
-70.799548 42.815548 -3.8
-70.802978 42.815617 -1.5
-70.802473 42.815686 -2.7
-70.802067 42.815692 -3.0
-70.808688 42.815823 -0.9
-70.801745 42.815828 -3.4
-70.810938 42.815870 -0.9
-70.801062 42.815878 -4.0
-70.810690 42.815911 -1.5
-70.802537 42.815934 -4.3
-70.809213 42.815945 -1.5
-70.800459 42.815953 -4.9
-70.799728 42.815975 -4.0
-70.810382 42.816017 -1.8
-70.809713 42.816050 -2.1
-70.803526 42.816117 -2.4
-70.803181 42.816150 -4.9
-70.802537 42.816164 -4.9
-70.801492 42.816178 -4.9
-70.802853 42.816178 -5.5
-70.808935 42.816181 -2.7
-70.809374 42.816181 -2.4
-70.800748 42.816195 -4.6
-70.799967 42.816209 -4.6
-70.810096 42.816211 -2.4
-70.801831 42.816289 -4.6
-70.808499 42.816323 -3.4
-70.810610 42.816339 -2.7
-70.801092 42.816348 -4.0
-70.806228 42.816373 -5.2
-70.800409 42.816406 -3.0
-70.805534 42.816428 -5.8
-70.804284 42.816442 -4.0
-70.804834 42.816450 -5.2
-70.808013 42.816461 -4.3
-70.811027 42.816475 -2.7
-70.799659 42.816478 -2.4
-70.807590 42.816517 -5.5
-70.803503 42.816589 -7.9
-70.811443 42.816617 -2.7
-70.802748 42.816689 -6.1
-70.806062 42.816692 -7.0
-70.806656 42.816703 -6.7
-70.807257 42.816703 -6.7
-70.801973 42.816709 -5.2
-70.805481 42.816709 -6.1
-70.808490 42.816720 -6.1
-70.804620 42.816725 -5.5
-70.804028 42.816728 -6.7
-70.804962 42.816728 -6.4
-70.809135 42.816728 -5.2
-70.807818 42.816731 -6.4
-70.809727 42.816750 -4.6
-70.811079 42.816750 -3.0
-70.828557 42.800156 0.9
-70.825252 42.800164 -0.3
-70.828199 42.800173 0.6
-70.823971 42.800220 -0.3
-70.824335 42.800220 -0.3
-70.829465 42.800220 -0.3
-70.824746 42.800236 -0.6
-70.823665 42.800239 0.0
-70.822449 42.800353 0.2
-70.822999 42.800420 0.3
-70.829360 42.800436 0.3
-70.828507 42.800445 0.6
-70.828174 42.800489 0.6
-70.822579 42.800636 -0.3
-70.829610 42.800636 0.0
-70.828493 42.800784 0.6
-70.829385 42.800817 -0.3
-70.822921 42.800856 0.3
-70.822590 42.801056 -0.3
-70.829582 42.801059 -0.6
-70.828435 42.801131 0.6
-70.827949 42.801148 0.6
-70.822871 42.801320 0.3
-70.829585 42.801431 -0.3
-70.828340 42.801442 0.6
-70.822568 42.801670 0.6
-70.829643 42.801678 -0.6
-70.827788 42.801695 0.6
-70.822865 42.801723 0.3
-70.828249 42.801775 0.6
-70.829449 42.801823 0.0
-70.822535 42.801981 0.6
-70.822902 42.802111 0.2
-70.829327 42.802203 0.0
-70.827643 42.802267 0.6
-70.827674 42.802275 0.6
-70.822554 42.802328 0.3
-70.828065 42.802381 0.6
-70.828907 42.802406 0.3
-70.822846 42.802531 0.0
-70.829129 42.802542 0.0
-70.822540 42.802648 0.3
-70.827904 42.802742 0.6
-70.828552 42.802742 0.3
-70.828838 42.802906 0.0
-70.827443 42.802911 0.6
-70.822560 42.802992 0.3
-70.822840 42.802992 -0.3
-70.828340 42.803103 0.3
-70.827854 42.803117 0.6
-70.828599 42.803289 0.0
-70.822652 42.803309 0.2
-70.827813 42.803464 0.6
-70.822988 42.803470 -0.3
-70.822988 42.803498 -0.3
-70.827224 42.803511 0.6
-70.828385 42.803645 0.0
-70.822749 42.803675 0.2
-70.827802 42.803823 0.3
-70.823249 42.803948 0.3
-70.828227 42.803953 -0.3
-70.823038 42.803986 -0.2
-70.826979 42.804106 0.6
-70.827788 42.804136 0.3
-70.823632 42.804217 0.6
-70.823340 42.804281 -0.3
-70.827968 42.804353 -0.6
-70.828421 42.804461 0.0
-70.823571 42.804478 -0.3
-70.824121 42.804573 0.2
-70.828146 42.804620 -0.3
-70.823890 42.804656 -0.3
-70.827852 42.804748 -0.6
-70.826946 42.804775 0.6
-70.824207 42.804892 -0.3
-70.824577 42.804934 -0.2
-70.827774 42.805036 -0.6
-70.827496 42.805128 -0.3
-70.824485 42.805181 -0.2
-70.825096 42.805314 -0.3
-70.827113 42.805339 0.6
-70.828504 42.805364 -0.3
-70.824815 42.805392 0.0
-70.827657 42.805406 -0.9
-70.828065 42.805592 -0.9
-70.825421 42.805623 -0.3
-70.825213 42.805636 0.2
-70.826840 42.805639 0.6
-70.827824 42.805664 0.3
-70.827560 42.805756 -1.2
-70.827263 42.805828 -1.2
-70.825563 42.805881 0.3
-70.825868 42.805903 0.2
-70.828090 42.805911 -0.6
-70.828540 42.805917 -1.2
-70.826813 42.805953 0.6
-70.827835 42.805964 0.6
-70.826377 42.805986 0.6
-70.827452 42.806125 -1.2
-70.825824 42.806150 0.3
-70.829004 42.806153 0.3
-70.827824 42.806309 0.6
-70.826782 42.806328 0.0
-70.828349 42.806361 -0.3
-70.826207 42.806381 0.3
-70.828154 42.806384 0.2
-70.827204 42.806403 -0.3
-70.827574 42.806423 -1.8
-70.829196 42.806456 -0.3
-70.828799 42.806584 -1.8
-70.829613 42.806586 0.6
-70.827813 42.806661 -1.5
-70.826874 42.806681 0.0
-70.828435 42.806709 -0.9
-70.829224 42.806717 -0.9
-70.826518 42.806756 0.3
-70.829107 42.806936 -2.7
-70.829799 42.806942 0.6
-70.827490 42.806948 0.3
-70.829349 42.806981 -1.2
-70.828010 42.806989 0.0
-70.826440 42.806992 0.6
-70.827821 42.806992 0.3
-70.827132 42.807011 0.3
-70.826788 42.807123 0.3
-70.829227 42.807198 -4.3
-70.828682 42.807311 -0.3
-70.827882 42.807325 0.6
-70.829560 42.807334 0.0
-70.828979 42.807386 -1.5
-70.829927 42.807400 0.6
-70.829279 42.807442 -1.5
-70.827657 42.807525 -2.1
-70.827143 42.807531 0.6
-70.827868 42.807611 -1.8
-70.826482 42.807623 0.3
-70.829204 42.807678 -1.2
-70.828674 42.807706 -1.2
-70.829585 42.807714 0.0
-70.829935 42.807764 0.6
-70.826904 42.807828 -1.5
-70.827852 42.807853 0.3
-70.828513 42.807870 0.0
-70.826518 42.807878 -1.2
-70.829096 42.807923 -0.9
-70.825560 42.808070 0.9
-70.828260 42.808073 0.0
-70.827818 42.808109 0.2
-70.829549 42.808111 -0.3
-70.825963 42.808123 0.3
-70.829921 42.808123 0.9
-70.829093 42.808148 -0.6
-70.826657 42.808256 0.3
-70.828652 42.808317 -0.9
-70.828040 42.808342 0.0
-70.829082 42.808425 -0.3
-70.825571 42.808439 0.9
-70.825960 42.808461 0.3
-70.829863 42.808461 0.9
-70.829504 42.808484 -0.2
-70.826324 42.808548 -1.2
-70.827679 42.808559 0.2
-70.828940 42.808595 -0.6
-70.826779 42.808648 0.3
-70.825982 42.808748 0.3
-70.827649 42.808759 0.0
-70.828565 42.808773 -0.6
-70.825560 42.808848 0.6
-70.829560 42.808884 0.3
-70.828829 42.808911 -0.3
-70.829827 42.808911 0.9
-70.825988 42.809009 0.3
-70.827454 42.809048 -1.2
-70.827840 42.809103 -1.2
-70.829535 42.809189 0.3
-70.826868 42.809192 -2.4
-70.825529 42.809217 0.6
-70.828515 42.809228 0.0
-70.829749 42.809261 0.6
-70.825913 42.809309 0.2
-70.827910 42.809464 0.0
-70.827313 42.809495 -0.2
-70.829379 42.809536 0.3
-70.816227 42.809556 -4.9
-70.825510 42.809570 0.6
-70.826104 42.809589 0.2
-70.826938 42.809614 -1.2
-70.829713 42.809634 0.3
-70.816374 42.809742 -2.7
-70.828379 42.809778 0.3
-70.825979 42.809781 -0.3
-70.827965 42.809800 0.3
-70.826277 42.809809 0.3
-70.829207 42.809884 0.3
-70.826740 42.809923 -1.5
-70.816204 42.809973 -4.9
-70.829563 42.810006 0.3
-70.827213 42.810014 -0.2
-70.825563 42.810036 0.3
-70.816574 42.810064 -3.0
-70.825968 42.810067 0.3
-70.824957 42.810145 0.3
-70.827938 42.810150 0.3
-70.826540 42.810178 -0.3
-70.828240 42.810250 0.3
-70.829029 42.810273 0.3
-70.826282 42.810298 0.2
-70.825977 42.810375 -0.3
-70.816560 42.810392 -4.6
-70.829343 42.810403 0.3
-70.816924 42.810414 -2.7
-70.825549 42.810431 0.3
-70.826957 42.810434 -0.9
-70.826582 42.810492 -0.3
-70.827190 42.810531 0.3
-70.830229 42.810534 0.2
-70.824521 42.810553 0.3
-70.828879 42.810625 0.2
-70.830679 42.810648 0.0
-70.816374 42.810681 -2.7
-70.826310 42.810700 0.2
-70.816827 42.810709 -4.6
-70.828138 42.810709 0.0
-70.826554 42.810725 -0.3
-70.826035 42.810736 0.2
-70.831224 42.810742 0.0
-70.829285 42.810770 0.0
-70.817196 42.810784 -3.0
-70.831729 42.810856 0.0
-70.827988 42.810881 0.2
-70.825454 42.810898 0.2
-70.826832 42.810903 -1.2
-70.828613 42.810906 0.0
-70.827221 42.810917 0.0
-70.816613 42.810931 -1.2
-70.832288 42.810948 0.0
-70.824582 42.810978 0.3
-70.823407 42.810992 0.6
-70.832779 42.811036 0.0
-70.826285 42.811053 0.0
-70.823929 42.811059 0.2
-70.825982 42.811064 0.0
-70.817185 42.811073 -4.6
-70.829238 42.811125 0.2
-70.817552 42.811139 -2.4
-70.827968 42.811164 0.0
-70.826646 42.811192 -2.7
-70.828443 42.811198 0.0
-70.825482 42.811292 0.3
-70.816990 42.811320 -4.9
-70.817802 42.811325 -2.7
-70.824749 42.811373 0.3
-70.827310 42.811373 0.0
-70.823915 42.811423 0.2
-70.823435 42.811442 0.3
-70.826046 42.811445 0.0
-70.826304 42.811453 0.0
-70.826593 42.811459 -2.1
-70.828249 42.811534 0.0
-70.829240 42.811536 0.2
-70.818015 42.811542 -4.0
-70.817710 42.811592 -4.3
-70.824013 42.811623 -0.3
-70.817318 42.811648 -4.3
-70.827829 42.811648 -0.2
-70.825510 42.811689 0.2
-70.826807 42.811706 -1.5
-70.818210 42.811756 -3.4
-70.827285 42.811764 -1.2
-70.826049 42.811792 0.0
-70.824865 42.811803 0.0
-70.826457 42.811817 -0.3
-70.823454 42.811839 0.2
-70.817968 42.811848 -4.6
-70.817696 42.811911 -4.6
-70.829290 42.811925 0.2
-70.818396 42.811945 -1.8
-70.824210 42.811945 -0.2
-70.828035 42.811961 0.2
-70.826843 42.811964 -1.2
-70.827302 42.811986 -0.6
-70.822790 42.812045 0.3
-70.821754 42.812073 0.6
-70.818604 42.812111 -2.4
-70.825465 42.812114 0.3
-70.827646 42.812117 0.3
-70.826077 42.812128 0.2
-70.832599 42.812134 -0.2
-70.825035 42.812142 0.2
-70.824032 42.812167 -0.2
-70.818354 42.812198 -4.3
-70.826907 42.812200 -2.1
-70.823102 42.812203 0.3
-70.818932 42.812239 -2.1
-70.824277 42.812248 0.0
-70.827365 42.812248 -0.3
-70.828004 42.812267 0.3
-70.818057 42.812273 -4.6
-70.823357 42.812306 0.0
-70.826510 42.812381 0.2
-70.820940 42.812384 0.9
-70.828332 42.812384 0.3
-70.821715 42.812386 0.9
-70.829335 42.812386 0.3
-70.825110 42.812389 0.3
-70.832449 42.812400 0.0
-70.819135 42.812403 -4.0
-70.822749 42.812434 0.0
-70.826979 42.812475 -1.5
-70.824035 42.812492 -0.2
-70.818760 42.812506 -7.0
-70.825454 42.812520 0.3
-70.818443 42.812550 -4.9
-70.820371 42.812570 0.9
-70.824382 42.812570 0.0
-70.826127 42.812578 0.2
-70.827435 42.812589 0.0
-70.819340 42.812603 -1.8
-70.827824 42.812653 0.3
-70.819540 42.812709 -1.5
-70.826615 42.812711 0.0
-70.823315 42.812714 0.0
-70.821640 42.812725 0.9
-70.820968 42.812731 0.9
-70.818657 42.812753 -6.7
-70.829379 42.812753 0.6
-70.832204 42.812753 0.2
-70.825293 42.812756 0.3
-70.827060 42.812775 -1.8
-70.827371 42.812784 -0.6
-70.819135 42.812795 -4.9
-70.824107 42.812828 -0.2
-70.828235 42.812828 0.6
-70.820371 42.812842 0.9
-70.823032 42.812845 0.0
-70.826179 42.812900 0.3
-70.824482 42.812909 0.0
-70.819763 42.812914 -4.6
-70.822699 42.812923 0.0
-70.819390 42.812975 -4.6
-70.825432 42.813009 0.3
-70.827724 42.813017 0.0
-70.821652 42.813034 0.6
-70.832118 42.813061 0.0
-70.827418 42.813084 0.0
-70.819107 42.813098 -4.9
-70.820968 42.813111 0.6
-70.827210 42.813111 -2.1
-70.826765 42.813145 -1.2
-70.824177 42.813161 0.2
-70.819602 42.813175 -6.1
-70.829577 42.813178 0.3
-70.820424 42.813192 0.6
-70.822990 42.813198 -0.2
-70.828321 42.813200 0.3
-70.826149 42.813203 0.0
-70.823285 42.813248 0.0
-70.824577 42.813314 0.0
-70.829902 42.813345 0.2
-70.825846 42.813350 0.2
-70.827424 42.813356 -0.3
-70.827671 42.813375 0.0
-70.821627 42.813386 0.6
-70.822699 42.813389 0.0
-70.825363 42.813417 0.2
-70.831877 42.813434 0.3
-70.819477 42.813459 -7.6
-70.824190 42.813459 0.3
-70.830713 42.813464 0.3
-70.820974 42.813478 0.6
-70.828338 42.813542 0.3
-70.822938 42.813559 -0.2
-70.826824 42.813567 -1.8
-70.820407 42.813573 -8.8
-70.831340 42.813573 0.3
-70.827115 42.813581 -1.5
-70.826193 42.813589 -0.9
-70.824690 42.813631 -0.3
-70.823252 42.813689 -0.3
-70.827652 42.813700 0.0
-70.832040 42.813709 0.3
-70.827365 42.813711 0.0
-70.819715 42.813714 -5.5
-70.831721 42.813717 0.0
-70.821702 42.813731 0.6
-70.832582 42.813756 0.3
-70.825643 42.813781 -0.3
-70.822646 42.813828 -0.3
-70.824190 42.813878 -0.6
-70.825296 42.813892 -0.3
-70.821018 42.813906 -1.5
-70.820090 42.813950 -1.8
-70.820540 42.813961 -5.2
-70.826238 42.813961 -1.8
-70.822927 42.813973 -0.2
-70.824771 42.813981 -0.6
-70.826810 42.813981 0.0
-70.831515 42.814011 0.0
-70.827057 42.814028 0.0
-70.825688 42.814050 -0.9
-70.821704 42.814075 0.3
-70.823132 42.814103 -0.6
-70.827632 42.814125 0.3
-70.820996 42.814261 -5.2
-70.826343 42.814284 0.3
-70.825507 42.814289 -1.2
-70.822507 42.814292 -0.3
-70.825782 42.814295 -1.8
-70.824224 42.814311 -0.6
-70.825165 42.814342 -0.9
-70.824882 42.814373 -0.9
-70.824432 42.814403 -0.9
-70.822907 42.814431 -0.9
-70.826949 42.814445 0.9
-70.831649 42.814461 0.3
-70.820549 42.814470 -0.3
-70.827621 42.814473 0.3
-70.821724 42.814489 -5.2
-70.823321 42.814492 -0.9
-70.831899 42.814500 0.3
-70.825379 42.814586 -1.5
-70.832399 42.814636 0.3
-70.820957 42.814645 0.2
-70.823827 42.814648 -0.9
-70.826518 42.814664 0.2
-70.824232 42.814695 -0.9
-70.824954 42.814695 -1.2
-70.825893 42.814725 0.6
-70.822402 42.814734 -0.6
-70.821713 42.814775 -5.2
-70.827618 42.814778 0.3
-70.825224 42.814814 -0.9
-70.822918 42.814845 -1.5
-70.821032 42.814878 0.3
-70.820513 42.814884 0.2
-70.826638 42.814920 0.3
-70.823452 42.815003 -0.9
-70.832052 42.815023 0.2
-70.824999 42.815050 0.0
-70.824293 42.815056 -0.3
-70.832699 42.815081 0.2
-70.821721 42.815098 -5.2
-70.825927 42.815159 0.0
-70.825932 42.815167 0.0
-70.825296 42.815206 0.3
-70.821032 42.815225 -0.3
-70.820579 42.815245 0.3
-70.826796 42.815273 0.3
-70.822254 42.815303 -1.5
-70.822818 42.815317 -0.9
-70.823660 42.815364 -0.3
-70.821699 42.815409 -5.2
-70.825060 42.815411 0.3
-70.824249 42.815456 0.2
-70.832288 42.815511 0.0
-70.826054 42.815570 -0.6
-70.826818 42.815611 0.3
-70.832693 42.815634 0.2
-70.820465 42.815648 0.0
-70.821435 42.815659 -5.5
-70.820988 42.815681 -2.4
-70.825632 42.815695 -0.6
-70.824368 42.815711 0.3
-70.821757 42.815714 -1.8
-70.825082 42.815773 -0.9
-70.823838 42.815806 0.3
-70.822857 42.815809 0.3
-70.822121 42.815831 0.0
-70.824635 42.815878 -1.2
-70.832110 42.815886 0.0
-70.826896 42.815925 0.3
-70.821782 42.815973 -0.3
-70.832663 42.815981 0.2
-70.820468 42.815984 -0.9
-70.827940 42.815998 0.3
-70.830177 42.815998 0.0
-70.824054 42.816048 -1.5
-70.826121 42.816081 -0.2
-70.825079 42.816100 -0.9
-70.821013 42.816103 -4.9
-70.822743 42.816114 -0.9
-70.830621 42.816145 0.2
-70.824479 42.816178 -1.2
-70.823635 42.816192 -1.5
-70.822035 42.816203 -1.2
-70.828577 42.816209 0.6
-70.821763 42.816225 -1.2
-70.831057 42.816253 0.3
-70.826852 42.816267 0.6
-70.823104 42.816300 -1.8
-70.823913 42.816300 -2.1
-70.828835 42.816314 0.3
-70.820477 42.816378 -1.5
-70.822543 42.816417 -2.1
-70.831557 42.816423 0.3
-70.829338 42.816436 -0.3
-70.826168 42.816439 -0.3
-70.830379 42.816470 0.3
-70.830371 42.816495 0.3
-70.832096 42.816511 0.0
-70.822807 42.816525 -2.7
-70.831057 42.816542 0.3
-70.826863 42.816548 -0.3
-70.822113 42.816559 -2.1
-70.831785 42.816575 0.0
-70.824518 42.816586 -0.9
-70.825090 42.816598 -0.9
-70.821760 42.816611 -2.7
-70.829852 42.816614 0.0
-70.820935 42.816639 -6.4
-70.823974 42.816648 -0.9
-70.821540 42.816661 -3.0
-70.832446 42.816675 0.0
-70.820477 42.816731 -3.7
-70.826840 42.816748 -0.6
-70.781456 42.816950 -21.0
-70.782034 42.816984 -20.7
-70.782664 42.817067 -20.4
-70.782784 42.817450 -20.7
-70.781512 42.817486 -21.0
-70.782120 42.817489 -20.7
-70.780103 42.818100 -21.9
-70.782201 42.818109 -21.3
-70.782531 42.818936 -21.3
-70.782537 42.820031 -21.6
-70.781389 42.820953 -23.2
-70.782706 42.820953 -17.7
-70.781645 42.823328 -23.2
-70.782370 42.825239 -23.2
-70.782795 42.825270 -22.9
-70.782012 42.826334 -22.9
-70.782631 42.827381 -23.2
-70.782776 42.829100 -23.2
-70.780809 42.829184 -24.4
-70.781442 42.832117 -24.7
-70.782689 42.832278 -23.8
-70.794956 42.816803 -7.9
-70.792453 42.816814 -11.3
-70.799203 42.816817 -2.7
-70.798431 42.816836 -2.4
-70.795589 42.816839 -7.0
-70.796876 42.816853 -3.0
-70.797906 42.816878 -1.8
-70.791864 42.816889 -12.2
-70.796262 42.816898 -4.6
-70.797487 42.816920 -3.0
-70.786023 42.816942 -18.6
-70.798789 42.816967 -1.8
-70.791198 42.816978 -12.8
-70.790545 42.817028 -14.0
-70.794987 42.817036 -7.9
-70.798151 42.817053 -2.7
-70.794287 42.817064 -8.8
-70.796962 42.817064 -2.4
-70.795503 42.817067 -7.0
-70.797237 42.817067 -2.4
-70.793314 42.817073 -10.4
-70.783387 42.817075 -19.8
-70.796587 42.817078 -3.7
-70.792726 42.817086 -10.7
-70.796039 42.817089 -5.5
-70.798592 42.817089 -1.5
-70.799084 42.817089 -2.1
-70.797653 42.817092 -2.7
-70.784048 42.817098 -19.2
-70.789895 42.817117 -14.6
-70.784992 42.817125 -18.4
-70.785476 42.817128 -18.0
-70.791731 42.817139 -12.2
-70.789226 42.817175 -15.2
-70.788470 42.817225 -16.2
-70.787867 42.817292 -16.8
-70.795237 42.817320 -7.9
-70.786623 42.817325 -17.4
-70.792098 42.817334 -12.5
-70.787231 42.817336 -17.4
-70.785301 42.817389 -18.6
-70.785978 42.817400 -18.6
-70.784648 42.817423 -18.9
-70.789695 42.817439 -14.9
-70.784039 42.817442 -19.8
-70.783406 42.817445 -19.8
-70.793692 42.817642 -11.0
-70.798859 42.817642 -3.0
-70.794273 42.817684 -10.1
-70.791909 42.817698 -12.8
-70.789939 42.817700 -14.9
-70.789287 42.817706 -16.2
-70.796898 42.817706 -4.6
-70.795576 42.817711 -8.2
-70.798187 42.817711 -2.1
-70.793023 42.817720 -11.6
-70.790631 42.817723 -14.3
-70.795020 42.817723 -8.5
-70.797523 42.817723 -2.7
-70.792512 42.817734 -12.5
-70.791259 42.817736 -13.7
-70.796167 42.817739 -7.0
-70.788645 42.817756 -16.8
-70.788051 42.817814 -17.1
-70.785698 42.817825 -18.9
-70.783056 42.817850 -21.0
-70.783645 42.817892 -20.4
-70.787403 42.817892 -17.7
-70.784239 42.817898 -19.8
-70.784884 42.817964 -19.2
-70.793481 42.817967 -11.0
-70.786803 42.817984 -18.3
-70.786070 42.818014 -18.6
-70.792770 42.818017 -11.9
-70.792148 42.818025 -12.5
-70.799187 42.818034 -2.4
-70.790184 42.818064 -14.9
-70.791481 42.818081 -13.4
-70.797901 42.818095 -1.5
-70.789592 42.818098 -15.8
-70.790828 42.818098 -14.3
-70.796348 42.818111 -7.3
-70.794159 42.818120 -10.4
-70.798576 42.818123 -2.1
-70.789023 42.818125 -16.5
-70.797356 42.818125 -4.3
-70.794717 42.818148 -9.8
-70.788351 42.818181 -16.8
-70.787662 42.818198 -17.4
-70.795362 42.818198 -8.8
-70.783145 42.818200 -20.7
-70.784395 42.818209 -20.1
-70.783714 42.818231 -20.4
-70.785067 42.818236 -19.5
-70.785778 42.818242 -18.9
-70.787031 42.818242 -18.0
-70.786473 42.818253 -18.3
-70.798909 42.818300 -1.5
-70.796712 42.818334 -6.7
-70.796053 42.818336 -7.9
-70.797362 42.818361 -4.6
-70.798492 42.818361 -2.1
-70.797909 42.818375 -3.0
-70.791564 42.818511 -14.0
-70.793989 42.818573 -11.0
-70.794703 42.818681 -10.1
-70.785309 42.818725 -19.8
-70.799070 42.818753 -1.8
-70.799364 42.818778 -2.1
-70.798842 42.818820 -2.1
-70.793312 42.818825 -11.9
-70.798220 42.818839 -3.4
-70.797578 42.818853 -5.5
-70.791353 42.818873 -14.3
-70.796917 42.818873 -7.6
-70.796314 42.818898 -8.5
-70.792587 42.818925 -12.8
-70.788462 42.818928 -17.1
-70.795620 42.818928 -9.1
-70.792034 42.818934 -13.4
-70.786531 42.818939 -18.9
-70.783023 42.818942 -21.0
-70.789026 42.818945 -16.8
-70.790153 42.818945 -15.8
-70.787306 42.818948 -18.3
-70.790812 42.818948 -14.9
-70.793745 42.818948 -11.6
-70.794276 42.818953 -10.7
-70.789612 42.818956 -16.5
-70.787842 42.818961 -17.7
-70.786059 42.818964 -19.2
-70.794928 42.818964 -10.4
-70.785484 42.818973 -19.5
-70.783626 42.818992 -20.7
-70.784970 42.818995 -19.8
-70.798667 42.818995 -2.1
-70.784303 42.819003 -20.4
-70.799176 42.819034 -2.4
-70.788742 42.819167 -16.8
-70.786798 42.819173 -18.6
-70.793370 42.819175 -12.2
-70.787481 42.819178 -18.0
-70.788123 42.819181 -17.4
-70.793881 42.819181 -11.3
-70.795201 42.819206 -10.1
-70.794523 42.819211 -10.7
-70.785614 42.819220 -19.2
-70.797273 42.819236 -7.3
-70.782831 42.819239 -21.0
-70.795912 42.819245 -9.1
-70.796576 42.819248 -8.5
-70.783553 42.819289 -20.4
-70.797962 42.819303 -5.5
-70.791109 42.819311 -14.9
-70.798551 42.819336 -3.4
-70.799239 42.819345 -2.4
-70.786381 42.819431 -19.2
-70.788678 42.819439 -15.5
-70.786926 42.819445 -18.9
-70.785834 42.819456 -19.5
-70.788103 42.819464 -18.0
-70.789392 42.819500 -14.6
-70.799014 42.819534 -2.7
-70.784217 42.819550 -20.1
-70.789826 42.819553 -14.0
-70.790278 42.819553 -15.5
-70.787389 42.819598 -18.6
-70.783662 42.819614 -20.7
-70.795076 42.819623 -10.7
-70.793926 42.819645 -11.6
-70.785439 42.819648 -19.8
-70.785003 42.819653 -20.1
-70.788942 42.819653 -13.1
-70.793448 42.819659 -12.2
-70.794495 42.819675 -11.0
-70.792809 42.819678 -13.1
-70.790934 42.819695 -15.5
-70.792228 42.819703 -13.7
-70.791556 42.819742 -14.3
-70.783039 42.819756 -21.3
-70.788117 42.819784 -15.8
-70.786970 42.819795 -18.9
-70.786464 42.819800 -19.2
-70.787653 42.819817 -18.0
-70.790351 42.819845 -14.9
-70.799412 42.819861 -2.7
-70.789703 42.819917 -13.4
-70.789106 42.819973 -13.4
-70.788484 42.820011 -13.1
-70.798634 42.820011 -5.5
-70.798053 42.820014 -7.3
-70.784712 42.820025 -19.8
-70.783514 42.820039 -21.0
-70.799145 42.820045 -4.0
-70.784134 42.820050 -20.4
-70.797456 42.820064 -8.5
-70.782998 42.820073 -21.3
-70.785817 42.820086 -19.5
-70.796914 42.820086 -9.1
-70.786423 42.820092 -19.2
-70.786945 42.820106 -18.9
-70.787389 42.820106 -18.6
-70.796442 42.820111 -9.4
-70.788051 42.820139 -17.7
-70.795856 42.820145 -10.1
-70.794351 42.820167 -11.6
-70.795373 42.820178 -11.0
-70.789117 42.820225 -13.7
-70.785317 42.820231 -19.8
-70.789612 42.820245 -14.3
-70.794770 42.820245 -11.3
-70.793626 42.820253 -12.8
-70.793062 42.820270 -13.4
-70.792478 42.820286 -13.7
-70.790745 42.820314 -15.8
-70.790117 42.820320 -13.4
-70.791378 42.820325 -15.2
-70.798506 42.820325 -6.7
-70.791945 42.820334 -14.6
-70.795509 42.820470 -11.0
-70.796106 42.820495 -10.4
-70.794070 42.820503 -12.5
-70.794837 42.820509 -11.3
-70.796770 42.820511 -9.8
-70.797426 42.820542 -8.8
-70.793553 42.820545 -13.1
-70.792881 42.820567 -13.7
-70.798131 42.820589 -7.9
-70.799292 42.820600 -6.1
-70.798678 42.820603 -7.6
-70.790256 42.820611 -14.9
-70.792245 42.820617 -14.3
-70.790951 42.820625 -15.2
-70.784867 42.820631 -20.7
-70.791617 42.820656 -15.2
-70.789595 42.820667 -14.0
-70.788953 42.820684 -15.8
-70.788337 42.820698 -16.8
-70.786409 42.820709 -19.5
-70.787128 42.820723 -18.9
-70.787709 42.820728 -17.4
-70.785803 42.820731 -19.8
-70.785159 42.820734 -20.4
-70.797734 42.820834 -8.5
-70.790384 42.820900 -15.5
-70.784078 42.820998 -21.3
-70.789881 42.821086 -15.5
-70.794217 42.821100 -12.2
-70.797248 42.821109 -9.1
-70.789406 42.821111 -15.5
-70.788056 42.821125 -17.1
-70.784814 42.821139 -20.7
-70.791356 42.821150 -15.2
-70.788731 42.821153 -15.2
-70.790745 42.821167 -16.2
-70.791912 42.821170 -14.9
-70.787317 42.821178 -17.7
-70.786270 42.821198 -17.7
-70.792576 42.821214 -14.3
-70.790281 42.821270 -16.8
-70.799362 42.821336 -7.3
-70.798278 42.821348 -8.8
-70.797756 42.821361 -8.8
-70.798764 42.821361 -8.2
-70.796189 42.821364 -10.4
-70.796778 42.821386 -9.8
-70.797206 42.821386 -9.4
-70.794981 42.821398 -11.6
-70.795592 42.821400 -11.3
-70.794439 42.821403 -12.5
-70.793570 42.821423 -13.4
-70.793078 42.821436 -14.0
-70.791959 42.821442 -14.9
-70.792489 42.821456 -14.3
-70.786656 42.821461 -18.0
-70.787270 42.821464 -17.4
-70.787764 42.821481 -17.4
-70.791498 42.821481 -15.5
-70.785642 42.821492 -17.7
-70.788337 42.821492 -16.8
-70.789873 42.821492 -16.8
-70.786153 42.821495 -16.8
-70.789392 42.821498 -16.8
-70.788928 42.821509 -17.1
-70.785231 42.821511 -18.3
-70.790984 42.821514 -16.2
-70.790498 42.821548 -16.5
-70.784734 42.821584 -20.7
-70.794120 42.821611 -12.8
-70.796378 42.821678 -10.4
-70.790120 42.821717 -17.4
-70.788042 42.821886 -18.9
-70.786064 42.821914 -19.8
-70.785351 42.821923 -20.1
-70.787403 42.821925 -19.2
-70.786720 42.821934 -19.5
-70.788784 42.821934 -18.6
-70.794670 42.821934 -12.8
-70.784037 42.821939 -21.3
-70.792042 42.821942 -14.9
-70.791381 42.821945 -16.2
-70.790781 42.821950 -16.5
-70.784648 42.821961 -21.0
-70.793384 42.821961 -13.7
-70.789467 42.821973 -18.0
-70.795973 42.821978 -11.3
-70.792673 42.821984 -14.3
-70.790306 42.821992 -17.1
-70.795378 42.822000 -12.2
-70.796698 42.822009 -10.4
-70.797337 42.822042 -10.1
-70.798670 42.822092 -8.2
-70.798003 42.822100 -9.4
-70.794034 42.822111 -13.1
-70.799312 42.822125 -8.2
-70.789981 42.822248 -18.0
-70.795509 42.822295 -11.6
-70.784392 42.822342 -21.3
-70.787373 42.822475 -19.5
-70.789053 42.822475 -18.6
-70.788495 42.822478 -18.9
-70.787934 42.822484 -19.2
-70.786814 42.822500 -19.8
-70.785598 42.822523 -21.0
-70.785034 42.822528 -21.0
-70.786173 42.822536 -20.4
-70.790217 42.822539 -18.0
-70.789664 42.822542 -18.3
-70.784559 42.822545 -21.3
-70.795120 42.822545 -12.2
-70.790784 42.822559 -17.1
-70.791314 42.822586 -16.5
-70.791817 42.822617 -16.2
-70.794034 42.822617 -13.4
-70.792470 42.822625 -15.2
-70.793081 42.822650 -14.9
-70.793589 42.822653 -14.6
-70.796003 42.822684 -12.2
-70.795414 42.822689 -13.1
-70.783745 42.822692 -21.6
-70.796526 42.822711 -11.3
-70.798939 42.822714 -9.1
-70.797153 42.822723 -11.0
-70.797723 42.822734 -10.4
-70.798276 42.822742 -9.8
-70.784095 42.822773 -21.6
-70.788603 42.822784 -18.6
-70.790103 42.822786 -18.0
-70.784823 42.822806 -21.0
-70.790659 42.822809 -17.1
-70.788034 42.822811 -18.9
-70.791131 42.822853 -16.5
-70.785445 42.822873 -20.7
-70.787539 42.822873 -19.5
-70.794570 42.822875 -13.1
-70.791712 42.822892 -16.2
-70.786959 42.822923 -19.8
-70.786448 42.822925 -19.8
-70.785973 42.822934 -20.4
-70.789684 42.822936 -18.3
-70.792320 42.822967 -15.2
-70.792964 42.823011 -14.9
-70.793506 42.823081 -14.9
-70.793989 42.823145 -14.0
-70.783817 42.823173 -21.9
-70.795181 42.823211 -13.1
-70.784848 42.823214 -20.7
-70.794614 42.823223 -13.4
-70.795712 42.823248 -12.5
-70.799345 42.823261 -8.8
-70.797809 42.823278 -10.4
-70.796256 42.823281 -11.9
-70.798795 42.823281 -9.4
-70.785484 42.823284 -20.7
-70.797253 42.823284 -10.7
-70.798312 42.823292 -10.1
-70.796742 42.823309 -11.3
-70.786159 42.823317 -20.4
-70.789681 42.823342 -18.3
-70.786853 42.823345 -19.5
-70.787567 42.823409 -19.2
-70.793662 42.823420 -14.6
-70.788298 42.823431 -18.6
-70.789189 42.823467 -18.6
-70.790373 42.823550 -17.7
-70.792192 42.823592 -15.8
-70.790992 42.823603 -17.1
-70.791576 42.823603 -16.5
-70.792937 42.823617 -15.5
-70.789506 42.823639 -18.9
-70.793623 42.823675 -14.9
-70.794387 42.823706 -14.0
-70.795026 42.823709 -13.4
-70.795720 42.823786 -12.5
-70.796326 42.823786 -12.2
-70.798964 42.823798 -9.8
-70.798326 42.823817 -10.4
-70.797709 42.823825 -11.0
-70.797053 42.823836 -11.6
-70.789401 42.823973 -19.2
-70.783934 42.823992 -21.9
-70.784639 42.824070 -21.6
-70.785281 42.824123 -21.3
-70.798956 42.824156 -9.8
-70.785998 42.824181 -21.3
-70.798242 42.824245 -10.4
-70.786695 42.824311 -20.4
-70.797639 42.824323 -11.0
-70.789362 42.824356 -19.5
-70.787353 42.824375 -20.1
-70.796864 42.824442 -11.6
-70.788045 42.824450 -19.5
-70.784681 42.824461 -21.6
-70.788670 42.824503 -19.5
-70.785384 42.824525 -21.3
-70.790037 42.824564 -18.9
-70.796284 42.824592 -12.5
-70.786081 42.824620 -21.3
-70.790709 42.824620 -18.6
-70.794206 42.824620 -14.9
-70.795534 42.824636 -13.4
-70.798906 42.824648 -10.1
-70.794806 42.824656 -14.3
-70.793509 42.824659 -15.8
-70.786767 42.824661 -20.7
-70.791426 42.824675 -18.0
-70.792087 42.824684 -17.4
-70.792803 42.824684 -16.5
-70.798239 42.824692 -10.7
-70.787526 42.824695 -20.1
-70.788309 42.824756 -19.8
-70.788998 42.824759 -19.5
-70.797581 42.824767 -11.3
-70.796920 42.824806 -11.9
-70.789564 42.824839 -19.2
-70.796376 42.824873 -12.5
-70.794989 42.824889 -14.3
-70.790295 42.824892 -18.9
-70.795637 42.824892 -13.4
-70.794298 42.824903 -15.2
-70.790964 42.824920 -18.6
-70.791631 42.824948 -18.0
-70.792306 42.824967 -17.7
-70.793623 42.824967 -15.8
-70.792981 42.824981 -16.8
-70.789212 42.825078 -20.1
-70.783373 42.825284 -22.6
-70.784584 42.825303 -21.6
-70.783909 42.825314 -22.3
-70.785092 42.825359 -21.6
-70.785659 42.825409 -21.3
-70.786220 42.825436 -21.6
-70.786228 42.825439 -21.6
-70.786764 42.825473 -21.3
-70.787251 42.825481 -21.0
-70.790759 42.825481 -19.2
-70.790214 42.825484 -19.5
-70.789603 42.825486 -19.5
-70.787917 42.825495 -20.4
-70.791356 42.825495 -18.6
-70.788514 42.825506 -20.1
-70.789092 42.825539 -20.7
-70.791923 42.825539 -18.0
-70.792517 42.825553 -17.4
-70.784478 42.825578 -21.9
-70.793151 42.825606 -16.5
-70.793648 42.825653 -16.2
-70.785198 42.825664 -21.6
-70.794284 42.825725 -15.2
-70.799345 42.825745 -9.8
-70.795414 42.825770 -13.7
-70.785862 42.825773 -21.6
-70.794901 42.825784 -14.6
-70.795851 42.825789 -13.1
-70.798767 42.825803 -10.4
-70.798131 42.825811 -10.7
-70.796928 42.825814 -11.9
-70.796401 42.825825 -12.5
-70.797495 42.825839 -11.3
-70.786578 42.825878 -21.3
-70.789001 42.825917 -20.7
-70.787309 42.825953 -21.3
-70.782928 42.825978 -22.6
-70.787959 42.826014 -21.3
-70.788551 42.826034 -20.7
-70.789328 42.826045 -20.4
-70.790748 42.826084 -19.5
-70.790067 42.826098 -19.8
-70.783403 42.826131 -22.6
-70.791462 42.826136 -18.9
-70.798345 42.826148 -11.0
-70.792139 42.826153 -18.3
-70.792792 42.826159 -17.4
-70.798998 42.826161 -10.4
-70.796995 42.826173 -12.5
-70.797648 42.826175 -11.6
-70.793520 42.826186 -16.8
-70.794928 42.826206 -14.9
-70.794201 42.826214 -15.8
-70.796267 42.826217 -13.1
-70.795570 42.826245 -14.0
-70.783970 42.826320 -22.3
-70.788906 42.826398 -20.7
-70.784537 42.826470 -22.3
-70.797448 42.826539 -12.2
-70.797962 42.826545 -11.3
-70.794617 42.826548 -15.2
-70.796912 42.826561 -12.5
-70.798531 42.826561 -11.0
-70.793409 42.826567 -16.8
-70.793962 42.826567 -15.8
-70.795173 42.826567 -14.3
-70.796378 42.826567 -13.4
-70.785103 42.826575 -21.9
-70.795803 42.826575 -13.7
-70.799151 42.826595 -10.4
-70.792837 42.826636 -17.4
-70.792289 42.826653 -18.0
-70.791134 42.826675 -18.9
-70.791714 42.826675 -18.6
-70.790642 42.826711 -19.5
-70.785801 42.826731 -21.6
-70.786362 42.826764 -21.6
-70.789998 42.826764 -19.8
-70.788181 42.826775 -21.0
-70.789431 42.826792 -20.1
-70.786931 42.826814 -21.3
-70.787534 42.826820 -21.3
-70.788812 42.826828 -20.7
-70.798767 42.827170 -11.0
-70.788778 42.827245 -20.7
-70.798137 42.827250 -11.6
-70.797578 42.827314 -12.2
-70.796892 42.827339 -12.8
-70.796234 42.827395 -14.0
-70.783370 42.827428 -22.9
-70.783995 42.827431 -22.9
-70.785487 42.827431 -21.9
-70.784703 42.827439 -22.3
-70.786162 42.827461 -21.6
-70.795562 42.827470 -14.6
-70.786781 42.827509 -21.6
-70.794823 42.827534 -15.5
-70.788117 42.827536 -21.3
-70.787459 42.827539 -21.6
-70.794220 42.827539 -16.5
-70.792862 42.827617 -18.0
-70.788745 42.827623 -21.0
-70.791564 42.827625 -19.2
-70.793595 42.827628 -17.1
-70.789531 42.827631 -20.4
-70.790926 42.827631 -19.8
-70.792234 42.827631 -18.6
-70.790287 42.827634 -20.1
-70.799267 42.827750 -10.4
-70.794648 42.827828 -15.8
-70.795334 42.827842 -14.9
-70.785945 42.827853 -21.9
-70.796039 42.827856 -14.0
-70.796648 42.827867 -13.7
-70.797873 42.827878 -11.9
-70.786623 42.827900 -21.6
-70.798376 42.827900 -11.3
-70.787326 42.827906 -21.6
-70.797262 42.827906 -12.5
-70.788039 42.827911 -21.3
-70.785320 42.827931 -22.6
-70.784631 42.827959 -22.6
-70.789995 42.827959 -20.4
-70.789431 42.827967 -20.7
-70.783926 42.828028 -22.9
-70.788628 42.828070 -20.4
-70.783245 42.828098 -23.2
-70.790773 42.828139 -20.1
