-70.898229 43.057154 0.3
-70.889579 43.057179 0.2
-70.899279 43.057204 0.3
-70.894287 43.057393 0.3
-70.898629 43.057440 0.3
-70.889673 43.057704 0.2
-70.896401 43.057720 0.3
-70.894262 43.057823 0.2
-70.898707 43.058062 0.3
-70.889684 43.058134 0.2
-70.891920 43.058451 0.3
-70.896454 43.058506 0.3
-70.894384 43.058587 0.2
-70.889751 43.058765 0.2
-70.898734 43.058770 0.3
-70.894398 43.058968 0.3
-70.887054 43.058987 0.0
-70.891965 43.058993 0.3
-70.889776 43.059112 0.0
-70.896554 43.059320 0.3
-70.894440 43.059329 0.2
-70.898754 43.059445 0.3
-70.891976 43.059512 0.3
-70.886932 43.059593 0.0
-70.894423 43.059709 0.2
-70.889829 43.059793 0.0
-70.896607 43.060081 0.3
-70.898832 43.060123 0.3
-70.891918 43.060162 0.0
-70.886790 43.060262 0.0
-70.894573 43.060434 0.2
-70.889834 43.060465 0.0
-70.885640 43.060640 0.0
-70.891865 43.060679 0.2
-70.898912 43.060748 0.3
-70.896620 43.060809 0.3
-70.885632 43.060956 0.0
-70.886609 43.060993 0.0
-70.891868 43.061176 0.2
-70.894657 43.061193 0.2
-70.885562 43.061293 0.0
-70.889882 43.061315 0.0
-70.896662 43.061320 0.2
-70.891901 43.061465 0.3
-70.898948 43.061465 0.3
-70.886812 43.061487 0.0
-70.885482 43.061620 -0.2
-70.894757 43.061901 0.2
-70.887054 43.061906 -0.3
-70.885487 43.062009 -0.2
-70.891876 43.062009 0.2
-70.896765 43.062054 0.2
-70.889915 43.062129 0.0
-70.898943 43.062195 0.3
-70.887401 43.062548 -0.3
-70.891868 43.062629 0.2
-70.894809 43.062693 0.2
-70.885401 43.062718 -0.2
-70.899184 43.062812 0.3
-70.898890 43.062865 0.3
-70.883004 43.062893 0.0
-70.889898 43.062954 0.0
-70.896832 43.062970 0.2
-70.898851 43.063190 0.2
-70.887529 43.063229 -0.3
-70.891807 43.063237 0.2
-70.889907 43.063354 -0.2
-70.883154 43.063445 0.0
-70.894898 43.063448 0.2
-70.899226 43.063465 0.3
-70.885359 43.063470 -0.2
-70.898782 43.063495 0.2
-70.896807 43.063729 0.2
-70.891848 43.063745 0.2
-70.899207 43.063756 0.2
-70.889948 43.063795 -0.3
-70.894929 43.063856 0.0
-70.883257 43.064004 0.0
-70.899270 43.064068 0.3
-70.887445 43.064106 -0.3
-70.898701 43.064209 0.2
-70.889984 43.064212 -0.3
-70.896843 43.064229 0.2
-70.894923 43.064234 -0.3
-70.885307 43.064262 -0.2
-70.891893 43.064337 0.2
-70.883273 43.064551 0.0
-70.898643 43.064570 -0.3
-70.899223 43.064595 -0.6
-70.894865 43.064612 0.0
-70.889976 43.064623 -0.2
-70.896859 43.064640 0.3
-70.898090 43.064651 -0.6
-70.891929 43.064737 0.0
-70.897668 43.064787 -1.2
-70.898834 43.064795 -1.2
-70.896598 43.064879 -0.3
-70.887418 43.064893 -0.3
-70.899229 43.064901 -1.2
-70.897332 43.064906 -1.5
-70.898607 43.064926 -1.2
-70.894895 43.064965 0.0
-70.896065 43.064976 -0.9
-70.885268 43.064984 -0.2
-70.883245 43.064990 0.0
-70.890051 43.065020 -0.3
-70.898870 43.065023 -1.5
-70.897632 43.065084 -1.2
-70.896901 43.065104 -1.2
-70.892048 43.065106 -0.3
-70.895609 43.065143 -0.9
-70.898565 43.065206 -1.8
-70.889998 43.065223 -1.8
-70.896504 43.065226 -1.5
-70.896804 43.065240 -1.5
-70.895170 43.065243 -1.5
-70.898265 43.065265 -1.5
-70.899218 43.065265 -2.4
-70.896082 43.065293 -1.5
-70.887404 43.065315 -0.3
-70.894623 43.065345 -1.8
-70.885232 43.065376 -0.3
-70.887868 43.065376 -0.3
-70.887895 43.065406 -0.3
-70.883298 43.065440 -0.3
-70.888418 43.065448 -1.5
-70.888415 43.065459 -1.5
-70.892118 43.065459 -0.3
-70.895590 43.065468 -1.8
-70.896932 43.065504 -1.8
-70.899248 43.065543 -1.5
-70.889020 43.065559 -1.8
-70.894254 43.065584 -2.1
-70.889579 43.065620 -1.5
-70.885232 43.065631 -0.3
-70.895195 43.065640 -1.8
-70.887323 43.065656 -1.8
-70.892112 43.065656 -1.8
-70.893751 43.065662 -2.1
-70.890090 43.065695 -1.2
-70.897782 43.065748 -1.2
-70.898440 43.065748 -1.2
-70.886937 43.065759 -1.5
-70.896362 43.065768 -2.1
-70.895784 43.065770 -2.1
-70.894907 43.065793 -2.1
-70.893234 43.065795 -2.4
-70.883257 43.065798 -0.3
-70.898951 43.065820 -1.5
-70.898920 43.065826 -1.5
-70.890634 43.065837 -1.8
-70.894493 43.065895 -1.8
-70.894082 43.065923 -1.2
-70.889884 43.065943 -2.7
-70.897332 43.065945 -1.5
-70.892787 43.065954 -3.0
-70.892234 43.065970 -3.0
-70.896234 43.065970 -1.5
-70.893418 43.065973 -3.4
-70.885187 43.065979 -0.3
-70.886479 43.065979 -2.1
-70.893873 43.065984 -1.5
-70.895634 43.065984 -2.1
-70.898304 43.065990 -1.8
-70.899251 43.066001 -1.2
-70.895082 43.066009 -2.1
-70.897945 43.066031 -1.5
-70.896876 43.066037 -0.9
-70.891170 43.066062 -2.4
-70.898787 43.066109 -1.8
-70.883251 43.066123 -0.3
-70.891768 43.066126 -2.7
-70.892551 43.066193 -2.7
-70.885987 43.066195 -2.4
-70.887382 43.066198 -3.0
-70.897845 43.066201 -2.1
-70.893670 43.066220 -1.5
-70.896637 43.066220 -1.5
-70.893040 43.066223 -2.7
-70.896195 43.066234 -0.6
-70.897495 43.066237 -2.1
-70.889923 43.066254 -2.1
-70.898345 43.066268 -2.1
-70.891848 43.066281 -2.1
-70.897148 43.066284 -2.1
-70.894898 43.066301 -0.9
-70.892334 43.066315 -2.4
-70.891504 43.066334 -2.4
-70.891076 43.066340 -1.8
-70.893237 43.066376 -1.5
-70.896843 43.066401 -2.1
-70.899157 43.066415 -1.2
-70.895545 43.066420 -0.9
-70.883170 43.066429 -0.9
-70.885545 43.066440 -2.7
-70.897257 43.066440 -1.5
-70.899462 43.066462 -1.2
-70.891734 43.066479 -2.1
-70.890462 43.066490 -1.5
-70.896187 43.066501 -1.8
-70.885137 43.066506 -2.7
-70.897687 43.066520 -2.1
-70.898168 43.066520 -2.4
-70.891357 43.066529 -1.8
-70.895118 43.066556 -1.2
-70.887362 43.066573 -2.4
-70.891001 43.066579 -1.8
-70.899182 43.066604 -1.8
-70.895904 43.066618 -2.1
-70.896507 43.066620 -1.8
-70.892868 43.066637 -1.2
-70.890682 43.066673 -1.8
-70.894601 43.066679 -1.2
-70.895720 43.066687 -2.1
-70.889337 43.066712 -1.5
-70.883273 43.066718 -3.0
-70.889893 43.066726 -1.5
-70.897073 43.066726 -1.8
-70.896148 43.066729 -1.8
-70.913970 43.050093 -0.9
-70.913629 43.050109 -2.1
-70.914387 43.050262 0.0
-70.913976 43.050320 0.3
-70.912784 43.050379 -1.8
-70.913373 43.050429 -1.8
-70.914207 43.050565 0.3
-70.914487 43.050612 -0.3
-70.913765 43.050668 0.0
-70.912648 43.050759 -0.9
-70.913190 43.050798 -1.8
-70.914054 43.050873 0.3
-70.914732 43.050901 0.9
-70.913559 43.051009 -1.2
-70.913112 43.051112 -2.1
-70.912482 43.051123 -0.3
-70.913882 43.051173 0.3
-70.913293 43.051268 -2.4
-70.913715 43.051451 0.3
-70.913134 43.051498 -1.8
-70.912351 43.051504 -0.3
-70.912884 43.051620 -2.1
-70.913434 43.051829 -0.9
-70.913040 43.051854 -2.1
-70.912157 43.051876 -0.3
-70.912868 43.052051 -3.7
-70.913270 43.052093 -0.9
-70.911948 43.052220 -0.9
-70.912651 43.052284 -2.4
-70.913101 43.052331 0.3
-70.912540 43.052365 -3.4
-70.911782 43.052565 -0.6
-70.914043 43.052748 0.6
-70.911757 43.052926 0.3
-70.912384 43.052934 -0.3
-70.912093 43.052937 -0.6
-70.912218 43.052937 -0.6
-70.913995 43.053145 0.6
-70.911684 43.053168 0.0
-70.912998 43.053168 -2.1
-70.912423 43.053176 -1.5
-70.913284 43.053218 0.3
-70.913718 43.053220 0.6
-70.912284 43.053226 -0.3
-70.912123 43.053237 -0.9
-70.914623 43.053237 0.6
-70.910793 43.053268 -0.9
-70.911882 43.053268 -2.4
-70.911298 43.053270 0.3
-70.909829 43.053340 0.0
-70.910320 43.053340 -0.6
-70.913012 43.053409 -2.1
-70.913920 43.053498 0.6
-70.911565 43.053506 -1.5
-70.912132 43.053606 -3.4
-70.912934 43.053618 -1.5
-70.912437 43.053862 -1.5
-70.913870 43.053862 0.6
-70.911495 43.053931 0.2
-70.912873 43.053931 -1.2
-70.912184 43.053948 -2.7
-70.912793 43.054148 -0.6
-70.911373 43.054268 0.0
-70.911682 43.054268 -0.3
-70.912515 43.054284 -2.1
-70.911070 43.054309 0.3
-70.909509 43.054326 -0.3
-70.912195 43.054326 -2.7
-70.910065 43.054329 0.0
-70.910532 43.054331 0.0
-70.913365 43.054373 0.6
-70.908634 43.054379 0.3
-70.912729 43.054406 -0.3
-70.913848 43.054426 0.6
-70.914270 43.054479 0.6
-70.914707 43.054512 0.6
-70.915043 43.054540 0.9
-70.909065 43.054631 0.3
-70.911270 43.054640 0.3
-70.912723 43.054651 -0.3
-70.912229 43.054762 -2.1
-70.913634 43.054840 0.6
-70.912701 43.054926 0.0
-70.912212 43.055056 -2.1
-70.912770 43.055156 0.0
-70.908968 43.055209 0.3
-70.913565 43.055268 0.6
-70.911801 43.055301 -0.9
-70.911112 43.055348 0.3
-70.912179 43.055359 -2.4
-70.912862 43.055406 0.0
-70.911934 43.055645 -0.9
-70.910098 43.055651 -0.9
-70.912898 43.055651 0.0
-70.909543 43.055654 0.0
-70.911007 43.055704 0.3
-70.912287 43.055743 -2.1
-70.908904 43.055759 0.3
-70.910432 43.055762 0.3
-70.913484 43.055762 0.6
-70.908284 43.055779 0.3
-70.907873 43.055826 0.3
-70.906882 43.055856 0.6
-70.907359 43.055862 0.6
-70.912951 43.055956 0.0
-70.911370 43.055990 0.2
-70.912012 43.056029 -0.6
-70.910907 43.056062 0.3
-70.912212 43.056104 -1.5
-70.908809 43.056162 0.3
-70.913437 43.056173 0.3
-70.912998 43.056215 -0.3
-70.912684 43.056220 -1.8
-70.912484 43.056237 -2.1
-70.912026 43.056329 -0.3
-70.906757 43.056387 0.3
-70.914087 43.056495 0.6
-70.913382 43.056498 0.3
-70.912948 43.056543 -0.6
-70.914490 43.056559 0.6
-70.914893 43.056604 0.9
-70.912423 43.056626 -2.1
-70.912118 43.056676 -0.3
-70.908745 43.056698 0.3
-70.910695 43.056801 0.3
-70.913348 43.056823 0.3
-70.906673 43.056868 0.3
-70.912951 43.056890 -0.9
-70.905343 43.056895 0.3
-70.912143 43.056981 -0.3
-70.902295 43.056990 0.6
-70.912515 43.057051 -2.1
-70.913232 43.057093 -0.3
-70.910609 43.057140 0.3
-70.908676 43.057145 0.3
-70.913001 43.057148 -1.2
-70.905318 43.057156 0.3
-70.902354 43.057220 0.6
-70.901076 43.057240 0.3
-70.899715 43.057259 0.3
-70.900332 43.057268 0.3
-70.901345 43.057287 0.3
-70.901823 43.057287 0.3
-70.903420 43.057340 0.3
-70.912187 43.057343 -0.3
-70.913140 43.057354 -0.9
-70.902904 43.057365 0.6
-70.903970 43.057365 0.3
-70.904962 43.057365 0.3
-70.904445 43.057379 0.3
-70.906512 43.057412 0.3
-70.905479 43.057418 0.3
-70.906015 43.057418 0.3
-70.907023 43.057493 0.3
-70.907476 43.057495 0.3
-70.908026 43.057498 0.3
-70.909084 43.057531 0.3
-70.909362 43.057545 0.3
-70.909690 43.057559 -0.9
-70.912509 43.057559 -1.8
-70.910126 43.057568 0.3
-70.910684 43.057570 0.3
-70.911184 43.057570 0.3
-70.911629 43.057573 0.3
-70.901026 43.057640 0.3
-70.913004 43.057676 -2.4
-70.908668 43.057681 0.3
-70.913637 43.057693 0.6
-70.914318 43.057709 0.6
-70.912190 43.057712 -0.3
-70.902245 43.057768 0.6
-70.905223 43.057768 0.3
-70.910384 43.057798 0.6
-70.912682 43.057890 -2.1
-70.902932 43.057906 0.6
-70.906426 43.057926 0.3
-70.912168 43.057962 -0.3
-70.913043 43.057973 -2.4
-70.900940 43.058048 0.3
-70.903954 43.058051 0.3
-70.905148 43.058051 0.3
-70.910262 43.058118 0.6
-70.902226 43.058154 0.3
-70.908607 43.058173 0.3
-70.912145 43.058262 -0.3
-70.902865 43.058281 0.6
-70.912620 43.058309 -2.1
-70.912968 43.058312 -2.1
-70.904020 43.058334 0.3
-70.905104 43.058420 0.0
-70.906382 43.058429 0.3
-70.912123 43.058615 -0.3
-70.902132 43.058656 0.3
-70.912948 43.058659 -2.7
-70.900809 43.058670 0.3
-70.908593 43.058679 0.3
-70.902818 43.058695 0.3
-70.905054 43.058734 0.0
-70.912504 43.058751 -2.1
-70.904162 43.058812 0.3
-70.910095 43.058837 0.3
-70.912076 43.058926 -0.3
-70.912920 43.058954 -2.4
-70.906307 43.059009 0.3
-70.905034 43.059020 -0.3
-70.902765 43.059093 0.3
-70.908545 43.059112 0.3
-70.912384 43.059137 -2.4
-70.900798 43.059209 0.3
-70.912023 43.059218 -0.3
-70.902076 43.059315 0.3
-70.904287 43.059376 0.3
-70.904995 43.059393 0.2
-70.902707 43.059412 0.3
-70.909970 43.059451 0.6
-70.906268 43.059526 0.3
-70.912354 43.059565 -3.0
-70.911943 43.059579 -0.3
-70.908515 43.059618 0.3
-70.912676 43.059629 -2.4
-70.904965 43.059701 0.2
-70.900759 43.059779 0.2
-70.911812 43.059854 -0.2
-70.902679 43.059856 0.3
-70.904429 43.059893 0.3
-70.902043 43.059965 0.3
-70.912476 43.059970 -2.7
-70.912082 43.059995 -3.4
-70.904970 43.059998 0.0
-70.906229 43.060056 0.3
-70.911612 43.060109 -0.3
-70.908490 43.060126 0.3
-70.909826 43.060137 0.6
-70.912476 43.060151 -1.5
-70.902665 43.060237 0.3
-70.912204 43.060268 -3.0
-70.911443 43.060323 -0.3
-70.900759 43.060329 0.0
-70.904962 43.060351 0.0
-70.911923 43.060470 -2.7
-70.904501 43.060476 0.3
-70.909782 43.060515 0.3
-70.912276 43.060540 -0.9
-70.906145 43.060609 0.3
-70.911109 43.060662 -0.6
-70.901951 43.060698 0.3
-70.902640 43.060701 0.3
-70.904926 43.060704 0.0
-70.908429 43.060706 0.3
-70.910815 43.060831 -0.6
-70.912045 43.060831 -0.9
-70.911737 43.060876 -2.7
-70.909718 43.060884 0.3
-70.900851 43.060918 0.2
-70.908440 43.060973 0.0
-70.911154 43.061040 -2.4
-70.910523 43.061043 -0.3
-70.904998 43.061045 0.3
-70.901937 43.061068 0.2
-70.911804 43.061076 -0.9
-70.904545 43.061079 0.2
-70.902576 43.061156 0.0
-70.906179 43.061201 0.3
-70.909709 43.061243 0.3
-70.910251 43.061259 -0.3
-70.911523 43.061276 -1.5
-70.908445 43.061301 -0.3
-70.910784 43.061354 -2.1
-70.905059 43.061368 0.3
-70.904570 43.061398 0.3
-70.911298 43.061409 -2.1
-70.909957 43.061445 -0.3
-70.900932 43.061465 0.2
-70.910268 43.061529 -1.8
-70.902565 43.061551 0.0
-70.909173 43.061551 0.0
-70.901943 43.061565 0.2
-70.909665 43.061576 -0.3
-70.908348 43.061595 -0.6
-70.905104 43.061640 0.3
-70.908665 43.061681 -0.3
-70.911082 43.061681 -1.8
-70.907868 43.061715 -0.6
-70.904609 43.061734 0.3
-70.900973 43.061784 0.0
-70.910626 43.061793 -2.4
-70.906195 43.061818 0.3
-70.909648 43.061876 -1.5
-70.910276 43.061887 -2.1
-70.911229 43.061890 0.3
-70.907434 43.061929 -0.9
-70.905176 43.061931 0.0
-70.907082 43.061973 -0.6
-70.902520 43.061990 -0.3
-70.909220 43.061998 -1.2
-70.908343 43.062006 -0.9
-70.910673 43.062056 -1.2
-70.901040 43.062076 0.0
-70.908768 43.062087 -1.2
-70.904554 43.062098 0.2
-70.910020 43.062126 -2.1
-70.911007 43.062137 0.3
-70.906215 43.062162 -0.6
-70.901943 43.062168 0.2
-70.906670 43.062204 -1.2
-70.909368 43.062243 -1.8
-70.905304 43.062259 -0.3
-70.899854 43.062276 0.2
-70.907679 43.062279 -1.2
-70.910307 43.062281 -0.9
-70.908343 43.062301 -1.2
-70.907132 43.062309 -1.8
-70.909662 43.062318 -2.1
-70.902548 43.062365 0.0
-70.906220 43.062401 -1.8
-70.908757 43.062401 -1.8
-70.906512 43.062404 -1.8
-70.904498 43.062440 0.0
-70.904507 43.062459 0.0
-70.905884 43.062465 -1.8
-70.909393 43.062470 -1.8
-70.910084 43.062470 -0.6
-70.910473 43.062490 0.3
-70.901965 43.062518 0.3
-70.908382 43.062523 -1.8
-70.908954 43.062581 -1.5
-70.899943 43.062629 0.2
-70.909893 43.062640 -0.3
-70.901140 43.062651 0.0
-70.905490 43.062668 -2.1
-70.907654 43.062720 -1.8
-70.906284 43.062723 -2.1
-70.908543 43.062754 -1.5
-70.904437 43.062765 -1.8
-70.910220 43.062770 0.6
-70.907065 43.062818 -1.8
-70.902595 43.062831 0.0
-70.905045 43.062851 -2.7
-70.909659 43.062884 -0.3
-70.901926 43.062887 0.0
-70.904054 43.062901 -1.5
-70.908037 43.062915 -1.2
-70.909337 43.062920 -0.3
-70.905457 43.062987 -2.4
-70.906351 43.063001 -1.8
-70.907695 43.063006 -1.2
-70.909965 43.063015 0.6
-70.905187 43.063090 -3.0
-70.909059 43.063104 0.0
-70.907334 43.063115 -1.2
-70.904773 43.063126 -3.4
-70.903704 43.063156 -3.4
-70.904373 43.063156 -3.7
-70.908465 43.063181 0.3
-70.901245 43.063204 0.0
-70.908762 43.063204 0.0
-70.905543 43.063254 -1.8
-70.909737 43.063273 0.6
-70.902557 43.063276 -0.9
-70.906804 43.063290 -0.6
-70.903268 43.063293 -2.7
-70.900009 43.063304 0.2
-70.902843 43.063304 -1.5
-70.904862 43.063309 -1.8
-70.901937 43.063318 -0.9
-70.906420 43.063406 0.0
-70.908459 43.063426 0.3
-70.908009 43.063429 0.3
-70.907534 43.063459 0.3
-70.902462 43.063484 -1.2
-70.901257 43.063495 -0.3
-70.902098 43.063498 -1.8
-70.904340 43.063498 -2.1
-70.909434 43.063509 0.3
-70.904923 43.063529 -1.2
-70.903307 43.063548 -4.6
-70.901684 43.063593 -1.5
-70.903998 43.063593 -2.1
-70.904576 43.063629 -0.9
-70.905720 43.063654 0.3
-70.906443 43.063654 0.3
-70.909757 43.063673 0.6
-70.900057 43.063693 0.3
-70.908482 43.063695 0.3
-70.903562 43.063704 -2.4
-70.904276 43.063743 -0.6
-70.909107 43.063745 0.3
-70.901990 43.063784 -2.1
-70.901979 43.063790 -2.1
-70.901159 43.063823 -0.9
-70.904995 43.063845 0.0
-70.902873 43.063865 -4.6
-70.905204 43.063884 0.3
-70.900820 43.063906 -0.9
-70.908498 43.063943 0.6
-70.906493 43.063945 0.3
-70.904043 43.063948 -0.3
-70.908826 43.063981 0.3
-70.905770 43.063987 0.3
-70.900118 43.064006 -0.3
-70.902357 43.064029 -2.4
-70.900501 43.064051 -0.9
-70.903773 43.064070 -0.3
-70.909868 43.064079 0.3
-70.904298 43.064112 0.3
-70.901976 43.064173 -3.0
-70.906548 43.064198 0.3
-70.903451 43.064229 -0.3
-70.905237 43.064229 0.0
-70.902554 43.064287 -2.7
-70.900095 43.064323 -0.9
-70.903145 43.064337 -0.3
-70.901401 43.064345 -2.1
-70.905826 43.064359 0.3
-70.908412 43.064395 0.6
-70.900973 43.064398 -1.5
-70.899526 43.064429 -0.6
-70.904307 43.064429 0.3
-70.906607 43.064451 0.3
-70.903934 43.064462 0.3
-70.912763 43.064468 0.9
-70.900532 43.064470 -1.8
-70.902254 43.064509 -1.5
-70.902904 43.064545 -0.3
-70.910021 43.064548 0.3
-70.900243 43.064554 -1.5
-70.914752 43.064559 0.6
-70.901976 43.064576 -1.5
-70.911571 43.064604 0.6
-70.899932 43.064645 -1.5
-70.902637 43.064645 -0.6
-70.905868 43.064665 0.0
-70.908179 43.064665 0.3
-70.912852 43.064668 0.3
-70.905404 43.064729 0.0
-70.908637 43.064745 0.3
-70.899584 43.064784 -1.5
-70.906629 43.064790 -2.1
-70.914752 43.064790 0.3
-70.903490 43.064815 0.3
-70.900251 43.064840 -3.0
-70.910058 43.064865 -0.6
-70.902473 43.064879 -0.6
-70.911541 43.064879 0.0
-70.907998 43.064893 0.3
-70.901782 43.064918 -1.2
-70.904298 43.064951 0.3
-70.905937 43.064984 -2.7
-70.908679 43.064990 -1.2
-70.914799 43.065009 0.3
-70.906637 43.065040 0.0
-70.902307 43.065076 -0.3
-70.912788 43.065093 -2.1
-70.903070 43.065115 0.3
-70.905537 43.065115 -2.7
-70.901951 43.065120 -0.6
-70.900298 43.065129 -1.8
-70.911577 43.065165 -2.1
-70.908740 43.065204 -2.1
-70.910146 43.065234 -2.4
-70.901434 43.065243 -1.2
-70.907701 43.065254 0.3
-70.905982 43.065337 0.0
-70.905626 43.065343 -0.3
-70.906709 43.065348 0.2
-70.912885 43.065379 -0.3
-70.901798 43.065387 -0.3
-70.914838 43.065401 -2.1
-70.902595 43.065409 0.3
-70.908726 43.065459 -0.9
-70.911544 43.065462 0.0
-70.915552 43.065470 -1.8
-70.910216 43.065490 -0.6
-70.904298 43.065493 0.3
-70.907584 43.065493 0.3
-70.916010 43.065501 -1.5
-70.900998 43.065509 -1.5
-70.904879 43.065520 -0.6
-70.901998 43.065523 0.3
-70.900279 43.065545 -1.1
-70.901545 43.065554 -0.3
-70.915174 43.065559 -0.9
-70.914369 43.065579 0.0
-70.900682 43.065595 -1.2
-70.905993 43.065606 0.3
-70.914824 43.065618 -0.3
-70.913924 43.065620 0.2
-70.913488 43.065645 0.3
-70.913535 43.065659 0.3
-70.913116 43.065684 0.3
-70.913124 43.065684 0.3
-70.899998 43.065704 -1.2
-70.907415 43.065720 0.3
-70.904787 43.065726 -1.5
-70.912702 43.065729 0.3
-70.899532 43.065737 -1.5
-70.901165 43.065737 -0.3
-70.904332 43.065737 0.0
-70.911533 43.065737 0.3
-70.912405 43.065743 0.3
-70.911810 43.065773 0.6
-70.910974 43.065793 0.3
-70.910080 43.065798 0.0
-70.910413 43.065809 0.3
-70.900243 43.065812 -1.5
-70.906745 43.065812 0.3
-70.902018 43.065826 0.3
-70.905748 43.065831 0.0
-70.914760 43.065831 0.3
-70.908760 43.065865 0.3
-70.909210 43.065879 0.0
-70.909652 43.065879 0.2
-70.901651 43.065884 0.2
-70.899865 43.065893 -1.5
-70.907273 43.065931 0.3
-70.900420 43.065934 -0.9
-70.900820 43.065934 -0.3
-70.899526 43.065979 -1.8
-70.904782 43.065990 -1.5
-70.901207 43.066006 0.0
-70.911591 43.066018 0.3
-70.912933 43.066023 0.3
-70.908398 43.066026 0.3
-70.910491 43.066040 0.3
-70.904148 43.066043 0.0
-70.914624 43.066084 0.6
-70.907982 43.066093 0.3
-70.904379 43.066106 -0.6
-70.907548 43.066159 0.3
-70.907104 43.066234 0.3
-70.900145 43.066251 -0.6
-70.904720 43.066270 -1.5
-70.910641 43.066279 0.3
-70.906076 43.066290 0.3
-70.906837 43.066298 0.3
-70.911638 43.066306 0.3
-70.900315 43.066323 -0.6
-70.914505 43.066323 0.6
-70.908802 43.066362 0.6
-70.899745 43.066368 -0.9
-70.912941 43.066368 0.3
-70.905804 43.066379 0.0
-70.900670 43.066387 0.3
-70.904143 43.066401 0.0
-70.902068 43.066406 0.3
-70.906998 43.066437 0.3
-70.899957 43.066465 -0.6
-70.904429 43.066465 -1.2
-70.914341 43.066493 0.9
-70.899637 43.066604 -1.2
-70.906082 43.066609 0.3
-70.900370 43.066618 -0.3
-70.904679 43.066629 -1.2
-70.910780 43.066651 0.6
-70.901707 43.066654 0.3
-70.911619 43.066654 0.3
-70.912946 43.066654 0.9
-70.904184 43.066656 -0.3
-70.906754 43.066670 0.3
-70.900693 43.066729 0.3
-70.916463 43.064640 0.6
-70.917505 43.064837 0.3
-70.916596 43.064890 0.6
-70.916663 43.065159 0.3
-70.917774 43.065181 0.3
-70.916638 43.065401 0.0
-70.918446 43.065479 0.9
-70.918035 43.065481 0.3
-70.916935 43.065623 0.3
-70.918260 43.065662 0.3
-70.917338 43.065676 0.3
-70.916713 43.065731 -0.9
-70.917608 43.065826 0.6
-70.918077 43.065865 0.3
-70.916685 43.065887 -1.8
-70.917933 43.066059 0.3
-70.918444 43.066112 0.0
-70.918685 43.066237 0.0
-70.916708 43.066279 0.0
-70.917669 43.066290 0.0
-70.918133 43.066359 0.2
-70.917541 43.066431 -2.1
-70.918941 43.066484 0.0
-70.916735 43.066515 0.6
-70.918383 43.066651 0.0
-70.917294 43.066670 -0.3
-70.840572 43.066757 0.6
-70.842550 43.066802 0.2
-70.849106 43.066849 -0.3
-70.843664 43.067063 0.2
-70.840556 43.067085 0.3
-70.842561 43.067169 0.6
-70.846303 43.067205 0.0
-70.840497 43.067374 0.6
-70.849044 43.067374 0.0
-70.843731 43.067455 0.3
-70.842569 43.067530 0.6
-70.846472 43.067563 0.0
-70.840408 43.067694 0.6
-70.843847 43.067805 0.3
-70.846542 43.067866 0.0
-70.849061 43.067874 0.0
-70.846653 43.068255 0.0
-70.849039 43.068435 0.0
-70.846708 43.068582 0.0
-70.849039 43.068935 0.0
-70.846783 43.068938 0.0
-70.846881 43.069294 0.0
-70.849133 43.069438 0.0
-70.846981 43.069605 0.0
-70.846961 43.069944 0.0
-70.849122 43.069994 0.0
-70.846969 43.070296 0.2
-70.849156 43.070507 0.2
-70.847058 43.070630 0.0
-70.849150 43.071027 0.2
-70.847122 43.071030 0.3
-70.847161 43.071355 0.3
-70.847194 43.071663 0.3
-70.849189 43.071823 0.2
-70.864417 43.066804 -1.2
-70.863269 43.066845 -0.6
-70.861719 43.066912 -0.6
-70.858650 43.067031 -1.2
-70.865839 43.067056 -1.2
-70.856353 43.067068 -3.0
-70.864369 43.067226 -0.9
-70.863169 43.067262 -0.9
-70.852417 43.067294 -0.3
-70.858642 43.067334 -1.2
-70.861747 43.067348 -1.5
-70.856231 43.067376 -0.6
-70.865833 43.067498 -1.2
-70.864344 43.067590 -0.9
-70.861681 43.067634 -2.1
-70.852367 43.067666 -0.6
-70.858650 43.067679 -1.2
-70.863175 43.067693 -1.2
-70.856175 43.067720 -0.9
-70.865836 43.067898 -1.2
-70.861561 43.067984 -1.2
-70.852381 43.067994 -0.9
-70.856183 43.067993 -0.6
-70.864353 43.068020 -1.2
-70.858636 43.068037 -0.9
-70.863172 43.068120 -0.9
-70.856225 43.068268 -0.3
-70.852414 43.068310 -0.3
-70.858628 43.068312 -0.6
-70.865844 43.068343 -1.2
-70.861553 43.068412 -0.6
-70.864339 43.068431 -1.5
-70.856211 43.068543 -0.3
-70.863106 43.068556 -0.6
-70.858681 43.068579 -0.6
-70.852353 43.068652 0.0
-70.865819 43.068743 -1.5
-70.861519 43.068765 -0.3
-70.858747 43.068823 -0.3
-70.864358 43.068856 -1.8
-70.856181 43.068945 -0.3
-70.852375 43.068969 0.0
-70.863183 43.068995 -0.6
-70.865803 43.069018 -2.7
-70.861433 43.069093 -0.2
-70.858786 43.069123 -0.3
-70.864308 43.069251 -0.6
-70.865861 43.069329 -3.7
-70.856100 43.069331 -0.2
-70.863278 43.069404 -0.3
-70.858853 43.069423 -0.6
-70.861450 43.069440 -0.3
-70.865825 43.069623 -2.4
-70.852397 43.069648 0.0
-70.856131 43.069684 -0.2
-70.863306 43.069851 -0.6
-70.858889 43.069962 -0.3
-70.865803 43.069968 -1.2
-70.864297 43.070056 -0.6
-70.861339 43.070129 -0.6
-70.863228 43.070206 -0.6
-70.852411 43.070265 0.0
-70.865789 43.070404 -0.6
-70.861308 43.070418 -0.3
-70.863281 43.070615 0.0
-70.864258 43.070798 -0.6
-70.865783 43.070843 -0.6
-70.861267 43.070868 -0.2
-70.852433 43.070879 0.0
-70.863306 43.070993 -0.6
-70.852489 43.071168 0.3
-70.865803 43.071270 -0.6
-70.861142 43.071387 0.0
-70.863308 43.071401 -0.6
-70.864244 43.071595 -0.6
-70.865781 43.071670 -0.3
-70.863389 43.071790 -0.3
-70.864325 43.071962 -0.3
-70.861628 43.071995 0.3
-70.865833 43.072104 -0.3
-70.861617 43.072320 0.2
-70.864325 43.072326 -0.3
-70.863444 43.072531 -0.3
-70.861608 43.072618 0.0
-70.865744 43.072984 -0.3
-70.861633 43.073009 -0.2
-70.864386 43.073056 -0.3
-70.861636 43.073256 -0.3
-70.863389 43.073456 -0.3
-70.861650 43.073579 -0.3
-70.864458 43.073829 -0.3
-70.865742 43.073879 -0.3
-70.863339 43.074318 -0.3
-70.861633 43.074348 -0.3
-70.864572 43.074570 -0.3
-70.865707 43.074787 -0.3
-70.861644 43.075062 -0.3
-70.863303 43.075173 -0.3
-70.864639 43.075301 -0.3
-70.865732 43.075718 -0.3
-70.861628 43.075781 -0.3
-70.863267 43.076048 -0.3
-70.864687 43.076056 -0.3
-70.861683 43.076454 -0.3
-70.865734 43.076590 -0.3
-70.864679 43.076754 -0.3
-70.863208 43.076943 -0.3
-70.861703 43.077104 -0.3
-70.864704 43.077529 -0.3
-70.865770 43.077573 -0.3
-70.861731 43.077820 -0.3
-70.863167 43.077854 -0.3
-70.864693 43.078323 -0.3
-70.861703 43.078470 -0.3
-70.865776 43.078473 -0.3
-70.863195 43.078718 -0.3
-70.865123 43.078929 -0.3
-70.865812 43.078929 -0.6
-70.864673 43.079023 -0.3
-70.861617 43.079170 -0.3
-70.865129 43.079170 -0.3
-70.865848 43.079415 -0.6
-70.865095 43.079437 -0.3
-70.861625 43.079518 -0.3
-70.863201 43.079604 -0.3
-70.865090 43.079726 -0.3
-70.864601 43.079795 -0.3
-70.861542 43.079901 0.0
-70.865848 43.079912 -0.6
-70.865079 43.079984 -0.3
-70.864595 43.080159 -0.9
-70.861558 43.080248 0.0
-70.865057 43.080287 -0.6
-70.865887 43.080295 -0.6
-70.863201 43.080468 -0.3
-70.864579 43.080565 -0.6
-70.865023 43.080612 -1.5
-70.861582 43.080620 0.0
-70.864323 43.080687 -0.6
-70.865904 43.080798 -2.4
-70.864987 43.080887 -0.9
-70.863179 43.080898 -0.2
-70.864612 43.080940 -0.3
-70.861598 43.080954 0.0
-70.865376 43.080976 -2.1
-70.864976 43.081159 -0.3
-70.865979 43.081229 -5.5
-70.863229 43.081279 0.0
-70.861620 43.081323 0.3
-70.864607 43.081412 0.3
-70.865701 43.081440 -5.2
-70.864962 43.081459 -0.3
-70.865945 43.081643 -7.0
-70.861612 43.081656 0.6
-70.864945 43.081776 -0.3
-70.864607 43.081823 0.0
-70.861620 43.082037 0.6
-70.864918 43.082073 -0.6
-70.865268 43.082079 -5.2
-70.866029 43.082098 -11.6
-70.864562 43.082212 -0.3
-70.864937 43.082409 -1.8
-70.865254 43.082462 -7.0
-70.865968 43.082551 -14.3
-70.864557 43.082620 -0.3
-70.864929 43.082698 -6.4
-70.864518 43.082854 -0.6
-70.866145 43.082973 -14.6
-70.864604 43.083065 -4.9
-70.864943 43.083140 -9.1
-70.864198 43.083165 -4.6
-70.866095 43.083334 -15.5
-70.863284 43.083359 -0.3
-70.876479 43.066768 0.0
-70.880451 43.066804 -0.3
-70.874526 43.066806 0.0
-70.878015 43.066820 -0.3
-70.868536 43.066881 -0.6
-70.872643 43.066912 -0.3
-70.866492 43.066931 -1.2
-70.867797 43.066937 -1.8
-70.868950 43.067031 -2.0
-70.870832 43.067226 -0.3
-70.872615 43.067265 0.0
-70.880495 43.067270 -0.3
-70.868492 43.067318 -1.2
-70.878973 43.067337 -0.3
-70.868969 43.067376 -2.0
-70.866611 43.067379 -1.5
-70.867917 43.067426 -1.5
-70.877929 43.067509 -0.3
-70.874318 43.067529 0.0
-70.882532 43.067531 -2.7
-70.870912 43.067601 -0.6
-70.876615 43.067601 0.0
-70.867994 43.067768 -1.5
-70.881454 43.067776 -2.7
-70.882095 43.067776 -3.0
-70.868483 43.067779 -1.2
-70.868944 43.067790 -2.0
-70.866628 43.067798 -1.5
-70.880520 43.067798 -0.6
-70.870832 43.067929 -0.6
-70.872659 43.067973 0.0
-70.880801 43.068065 -2.4
-70.880079 43.068079 -1.5
-70.881073 43.068179 -2.7
-70.866650 43.068218 -1.8
-70.879023 43.068223 -0.3
-70.868414 43.068243 -1.5
-70.876643 43.068248 0.0
-70.869019 43.068254 -2.1
-70.870862 43.068262 -0.3
-70.880559 43.068276 -2.7
-70.879429 43.068287 -0.3
-70.877779 43.068306 -0.3
-70.874151 43.068318 0.0
-70.867983 43.068323 -1.8
-70.872595 43.068331 0.0
-70.878782 43.068420 -0.3
-70.867411 43.068518 -1.8
-70.878126 43.068537 -0.3
-70.880093 43.068584 -2.4
-70.876687 43.068595 -0.2
-70.868958 43.068615 -2.1
-70.882432 43.068631 -3.0
-70.880559 43.068662 -2.7
-70.878987 43.068668 -0.6
-70.877520 43.068670 -0.3
-70.872587 43.068687 -0.2
-70.877740 43.068690 -0.3
-70.868456 43.068693 -2.1
-70.869194 43.068704 -2.4
-70.882062 43.068743 -3.7
-70.879587 43.068751 -2.4
-70.882773 43.068776 -1.5
-70.866728 43.068779 -2.1
-70.876915 43.068779 -0.3
-70.868178 43.068784 -2.1
-70.868719 43.068798 -2.1
-70.881534 43.068829 -3.4
-70.876709 43.068870 -0.3
-70.876257 43.068876 -0.3
-70.880970 43.068876 -3.0
-70.882348 43.068879 -2.1
-70.870782 43.068881 -0.3
-70.867486 43.068929 -2.1
-70.879179 43.068940 -2.4
-70.880368 43.068979 -2.7
-70.868908 43.069018 -2.4
-70.879857 43.069043 -2.4
-70.872520 43.069059 -0.2
-70.881998 43.069073 -2.4
-70.867147 43.069076 -2.1
-70.875276 43.069106 -0.2
-70.874109 43.069118 0.0
-70.882762 43.069134 -1.8
-70.878754 43.069145 -2.1
-70.877679 43.069148 -0.3
-70.878129 43.069154 -0.9
-70.881368 43.069165 -3.7
-70.868231 43.069176 -2.1
-70.880576 43.069179 -3.7
-70.868600 43.069212 -2.4
-70.877129 43.069220 -0.3
-70.882326 43.069237 -2.1
-70.876754 43.069251 -0.3
-70.869136 43.069293 -2.7
-70.867425 43.069368 -2.4
-70.880201 43.069381 -3.7
-70.881779 43.069401 -3.0
-70.881190 43.069420 -3.7
-70.867150 43.069434 -3.0
-70.868883 43.069434 -2.4
-70.874009 43.069440 -0.2
-70.875279 43.069454 -0.3
-70.882540 43.069459 -2.4
-70.868183 43.069462 -2.4
-70.879001 43.069506 -3.0
-70.878357 43.069512 -2.7
-70.877595 43.069515 -1.5
-70.872487 43.069545 -0.3
-70.870729 43.069576 -0.3
-70.882154 43.069640 -2.7
-70.880934 43.069645 -3.7
-70.876682 43.069648 -0.9
-70.868500 43.069684 -2.7
-70.880593 43.069690 -4.3
-70.869120 43.069718 -2.7
-70.880129 43.069723 -4.0
-70.879637 43.069726 -3.4
-70.877940 43.069754 -3.0
-70.875326 43.069756 -0.3
-70.881862 43.069818 -3.0
-70.869587 43.069820 -3.7
-70.867172 43.069834 -4.6
-70.867583 43.069870 -3.4
-70.873859 43.069887 -0.3
-70.878487 43.069893 -3.7
-70.880382 43.069931 -2.1
-70.876690 43.069937 -2.1
-70.881434 43.069959 -4.0
-70.878948 43.069970 -4.0
-70.869845 43.069984 -3.4
-70.877970 43.070009 -3.7
-70.877520 43.070012 -3.4
-70.868506 43.070034 -2.7
-70.879451 43.070059 -3.7
-70.875329 43.070062 -0.3
-70.879932 43.070076 -6.4
-70.873743 43.070140 -0.3
-70.870726 43.070168 -0.3
-70.879093 43.070168 -2.4
-70.876620 43.070204 -3.0
-70.881104 43.070223 -4.9
-70.867183 43.070259 -5.8
-70.867653 43.070295 -5.8
-70.878540 43.070309 -4.0
-70.868826 43.070323 -2.7
-70.877054 43.070334 -3.7
-70.872384 43.070337 -0.3
-70.879498 43.070362 -3.7
-70.880537 43.070379 -7.0
-70.882690 43.070390 -0.9
-70.878137 43.070395 -3.7
-70.882509 43.070406 -0.3
-70.877554 43.070409 -4.0
-70.869876 43.070426 -3.0
-70.870484 43.070431 -0.9
-70.873607 43.070431 -0.3
-70.868369 43.070481 -3.0
-70.875312 43.070487 -0.9
-70.875834 43.070493 -2.4
-70.882223 43.070509 -0.3
-70.876618 43.070570 -4.0
-70.879170 43.070570 -4.9
-70.880182 43.070590 -4.6
-70.874745 43.070598 -1.5
-70.881932 43.070629 -0.2
-70.867161 43.070631 -4.6
-70.877707 43.070640 -2.1
-70.878176 43.070662 -3.0
-70.873473 43.070704 -0.3
-70.872362 43.070723 -0.6
-70.875373 43.070734 -2.7
-70.881715 43.070734 0.0
-70.870729 43.070748 -0.3
-70.868793 43.070756 -3.0
-70.878793 43.070787 -2.4
-70.876168 43.070790 -4.0
-70.867658 43.070801 -6.7
-70.879798 43.070820 -4.0
-70.880568 43.070831 -0.9
-70.876598 43.070870 -4.3
-70.869865 43.070884 -3.0
-70.877609 43.070895 -1.5
-70.870487 43.070909 -0.6
-70.868254 43.070920 -4.0
-70.878493 43.070920 -4.6
-70.876876 43.070923 -3.0
-70.877184 43.070923 -2.7
-70.881218 43.070965 0.0
-70.867117 43.071006 -2.7
-70.875309 43.071012 -3.7
-70.875676 43.071026 -4.0
-70.880718 43.071043 0.0
-70.873462 43.071087 -0.6
-70.867725 43.071090 -6.4
-70.879418 43.071115 -3.7
-70.876576 43.071159 -2.7
-70.868759 43.071165 -3.0
-70.880182 43.071198 0.0
-70.877443 43.071237 -2.4
-70.882773 43.071243 0.0
-70.879076 43.071262 -3.4
-70.876865 43.071265 -1.8
-70.869793 43.071279 -2.7
-70.877795 43.071304 -7.3
-70.875890 43.071337 -3.7
-70.876245 43.071340 -2.7
-70.868245 43.071343 -4.9
-70.876493 43.071362 -2.1
-70.873440 43.071376 -1.8
-70.879707 43.071390 -0.3
-70.870509 43.071406 -0.6
-70.867119 43.071415 -2.1
-70.875337 43.071437 -4.0
-70.874776 43.071440 -4.3
-70.878695 43.071456 -2.7
-70.867790 43.071468 -6.1
-70.879354 43.071470 -0.3
-70.880593 43.071490 -0.3
-70.872259 43.071515 -0.6
-70.878454 43.071520 -3.0
-70.875832 43.071556 -3.0
-70.868932 43.071581 -3.7
-70.877393 43.071587 -7.3
-70.870662 43.071679 -0.6
-70.874904 43.071679 -4.0
-70.868198 43.071718 -6.1
-70.874293 43.071723 -4.3
-70.867765 43.071740 -6.4
-70.876945 43.071745 -7.0
-70.875337 43.071748 -3.4
-70.878670 43.071751 -1.5
-70.868734 43.071765 -4.3
-70.867025 43.071770 -1.8
-70.878040 43.071779 -2.7
-70.876509 43.071781 -4.9
-70.873426 43.071790 -2.7
-70.869823 43.071826 -2.7
-70.875718 43.071829 -2.4
-70.874629 43.071851 -4.3
-70.872184 43.071895 -1.2
-70.870493 43.071904 -0.9
-70.877412 43.071915 -4.6
-70.880576 43.071962 0.0
-70.873945 43.071973 -4.3
-70.868593 43.071987 -5.2
-70.873476 43.072029 -3.7
-70.869007 43.072059 -4.9
-70.874990 43.072073 -3.4
-70.877651 43.072073 -3.4
-70.875357 43.072076 -2.7
-70.876482 43.072131 -6.4
-70.866978 43.072140 -1.5
-70.868101 43.072159 -6.4
-70.877220 43.072176 -3.7
-70.867870 43.072281 -5.5
-70.875882 43.072295 -6.1
-70.869787 43.072306 -3.7
-70.870559 43.072309 -0.9
-70.868523 43.072356 -6.1
-70.880604 43.072404 -0.3
-70.872176 43.072412 -3.0
-70.869107 43.072423 -5.2
-70.873426 43.072429 -4.3
-70.873048 43.072434 -4.3
-70.877457 43.072437 -0.3
-70.874662 43.072459 -4.0
-70.876473 43.072479 -4.9
-70.876870 43.072481 -3.4
-70.875570 43.072484 -5.8
-70.868051 43.072568 -5.5
-70.866906 43.072573 -1.2
-70.868415 43.072618 -6.4
-70.870562 43.072626 -1.2
-70.867532 43.072651 -3.4
-70.869382 43.072687 -4.6
-70.869768 43.072704 -4.0
-70.876179 43.072709 -3.7
-70.872604 43.072718 -4.6
-70.873954 43.072723 -4.6
-70.876512 43.072737 -1.8
-70.873451 43.072743 -4.6
-70.874362 43.072768 -4.6
-70.875384 43.072768 -5.5
-70.872059 43.072823 -3.7
-70.874934 43.072826 -5.5
-70.880640 43.072829 -0.3
-70.869026 43.072840 -5.2
-70.877434 43.072862 -0.3
-70.870448 43.072954 -2.4
-70.866848 43.072962 -0.9
-70.868023 43.072990 -4.9
-70.874554 43.073001 -5.2
-70.875662 43.073004 -4.3
-70.876462 43.073031 -0.3
-70.873409 43.073034 -4.6
-70.869298 43.073073 -4.6
-70.868393 43.073106 -6.4
-70.875376 43.073120 -4.9
-70.869723 43.073170 -4.3
-70.874276 43.073173 -4.9
-70.871659 43.073234 -4.3
-70.877382 43.073243 -0.2
-70.872009 43.073265 -4.6
-70.867315 43.073268 -2.7
-70.866826 43.073298 -0.9
-70.869082 43.073301 -4.9
-70.874987 43.073309 -4.6
-70.870604 43.073323 -3.0
-70.873890 43.073348 -5.2
-70.876476 43.073373 0.0
-70.873426 43.073376 -4.9
-70.872748 43.073379 -5.5
-70.871326 43.073418 -4.0
-70.867948 43.073426 -4.3
-70.869359 43.073454 -4.6
-70.875279 43.073454 -3.4
-70.874640 43.073470 -4.6
-70.868401 43.073495 -6.1
-70.870873 43.073520 -4.0
-70.877343 43.073620 0.0
-70.870326 43.073623 -4.0
-70.869107 43.073673 -4.9
-70.869729 43.073679 -4.3
-70.874326 43.073679 -4.6
-70.880595 43.073698 -0.3
-70.873420 43.073706 -5.2
-70.866870 43.073712 -0.9
-70.871973 43.073720 -5.5
-70.875218 43.073737 -0.6
-70.867223 43.073762 -2.4
-70.870601 43.073851 -4.3
-70.870315 43.073859 -4.6
-70.872895 43.073865 -5.5
-70.867920 43.073868 -4.3
-70.873776 43.073929 -4.9
-70.869376 43.073945 -4.3
-70.868451 43.073990 -5.8
-70.871429 43.073995 -5.8
-70.877309 43.074012 -0.2
-70.872401 43.074026 -5.8
-70.866823 43.074101 -0.9
-70.875201 43.074131 -0.2
-70.870351 43.074145 -4.9
-70.873432 43.074156 -4.9
-70.871870 43.074168 -6.1
-70.872995 43.074176 -5.5
-70.867793 43.074181 -4.0
-70.872437 43.074298 -6.1
-70.882651 43.074315 -0.9
-70.867226 43.074318 -2.7
-70.870245 43.074351 -5.2
-70.870701 43.074362 -4.9
-70.868443 43.074398 -5.2
-70.875201 43.074420 0.0
-70.871284 43.074512 -6.4
-70.873418 43.074537 -4.3
-70.866793 43.074543 -0.9
-70.871757 43.074556 -6.7
-70.880565 43.074618 -0.3
-70.873012 43.074631 -5.5
-70.882682 43.074645 -1.8
-70.869351 43.074654 -4.3
-70.882345 43.074681 -1.2
-70.875173 43.074709 0.0
-70.867795 43.074734 -4.3
-70.867220 43.074776 -2.7
-70.877268 43.074795 -0.2
-70.871087 43.074818 -6.4
-70.866554 43.074829 -0.6
-70.868512 43.074840 -4.9
-70.870718 43.074840 -5.8
-70.882518 43.074943 -1.8
-70.873387 43.074948 -3.7
-70.866762 43.074965 -0.6
-70.872795 43.075001 -5.5
-70.871820 43.075020 -6.4
-70.880534 43.075026 -0.3
-70.882023 43.075059 -1.5
-70.870429 43.075109 -5.8
-70.882265 43.075129 -2.1
-70.870082 43.075148 -5.5
-70.869218 43.075193 -4.6
-70.867815 43.075209 -4.3
-70.867220 43.075262 -3.0
-70.873359 43.075298 -3.4
-70.866537 43.075304 -0.6
-70.868562 43.075304 -4.6
-70.870737 43.075323 -6.4
-70.875168 43.075340 0.0
-70.868154 43.075348 -4.6
-70.866751 43.075351 -0.6
-70.870084 43.075356 -6.1
-70.882023 43.075376 -2.1
-70.872512 43.075379 -6.1
-70.869562 43.075381 -4.6
-70.881795 43.075440 -2.1
-70.880504 43.075473 -0.3
-70.871754 43.075506 -6.4
-70.867773 43.075562 -4.3
-70.869168 43.075573 -4.6
-70.877176 43.075576 -0.2
-70.882670 43.075631 -0.6
-70.873337 43.075690 -2.7
-70.868595 43.075695 -4.6
-70.866790 43.075737 -0.9
-70.881515 43.075745 -2.1
-70.872290 43.075748 -6.1
-70.867179 43.075751 -3.0
-70.866537 43.075762 -0.6
-70.870782 43.075765 -6.7
-70.869968 43.075815 -5.8
-70.868195 43.075834 -4.3
-70.869487 43.075876 -4.9
-70.880440 43.075926 -0.6
-70.877243 43.075934 -0.3
-70.867718 43.075956 -3.7
-70.875173 43.075984 0.0
-70.882576 43.075984 -0.6
-70.871695 43.076029 -6.1
-70.873284 43.076068 -2.4
-70.869968 43.076095 -6.1
-70.881215 43.076140 -2.1
-70.868598 43.076168 -4.3
-70.866579 43.076179 -0.9
-70.868170 43.076220 -4.3
-70.867098 43.076226 -3.4
-70.870851 43.076276 -6.4
-70.870232 43.076348 -6.1
-70.869359 43.076379 -5.2
-70.880407 43.076393 -0.6
-70.882207 43.076395 -0.6
-70.867695 43.076415 -4.3
-70.873309 43.076454 -1.8
-70.871715 43.076495 -5.8
-70.880948 43.076515 -2.1
-70.868659 43.076537 -4.6
-70.875195 43.076559 0.0
-70.869895 43.076570 -6.1
-70.867118 43.076606 -3.0
-70.868093 43.076618 -4.0
-70.870268 43.076629 -6.1
-70.866568 43.076631 -1.5
-70.872923 43.076640 -3.7
-70.882301 43.076670 -0.6
-70.877245 43.076706 -0.3
-70.870862 43.076768 -6.4
-70.873248 43.076790 -1.2
-70.880334 43.076818 -1.5
-70.880643 43.076848 -2.1
-70.867634 43.076854 -4.0
-70.881832 43.076859 -0.6
-70.869882 43.076870 -5.8
-70.869376 43.076884 -5.5
-70.872401 43.076904 -5.2
-70.867037 43.076931 -3.0
-70.871670 43.076956 -6.1
-70.868562 43.076998 -5.2
-70.868134 43.077037 -4.3
-70.870226 43.077059 -7.0
-70.873259 43.077073 -0.6
-70.871182 43.077156 -7.3
-70.866576 43.077215 -2.1
-70.871829 43.077215 -6.1
-70.869748 43.077218 -7.0
-70.881873 43.077220 -0.6
-70.867720 43.077234 -4.0
-70.875218 43.077243 0.0
-70.867018 43.077251 -3.4
-70.880295 43.077279 -2.4
-70.881404 43.077287 -0.6
-70.870807 43.077295 -7.6
-70.870298 43.077348 -8.5
-70.869248 43.077398 -5.8
-70.873248 43.077431 -0.3
-70.868673 43.077470 -5.5
-70.868195 43.077481 -4.9
-70.877273 43.077515 -0.3
-70.879957 43.077551 -1.8
-70.871365 43.077565 -7.3
-70.867001 43.077579 -3.4
-70.869773 43.077601 -8.5
-70.870901 43.077601 -8.5
-70.881134 43.077618 -0.9
-70.867770 43.077648 -4.3
-70.866604 43.077665 -2.7
-70.870293 43.077756 -9.1
-70.873173 43.077768 -0.3
-70.870815 43.077779 -8.5
-70.881401 43.077784 -0.6
-70.880226 43.077801 -2.4
-70.880962 43.077823 -1.2
-70.875248 43.077834 0.0
-70.871648 43.077898 -6.7
-70.879684 43.077920 -1.5
-70.869129 43.077926 -8.2
-70.866951 43.077948 -3.4
-70.868679 43.077951 -5.8
-70.868173 43.077998 -4.6
-70.869643 43.078034 -9.4
-70.867820 43.078073 -4.3
-70.866634 43.078104 -3.0
-70.880748 43.078106 -1.5
-70.873159 43.078115 0.0
-70.882679 43.078229 -0.3
-70.880262 43.078234 -3.0
-70.870295 43.078240 -10.1
-70.879401 43.078284 -1.5
-70.866918 43.078293 -3.7
-70.868148 43.078298 -4.9
-70.868665 43.078315 -7.6
-70.882132 43.078318 -0.3
-70.871687 43.078320 -4.9
-70.877268 43.078326 -0.3
-70.880973 43.078345 -0.6
-70.870884 43.078415 -8.8
-70.869643 43.078420 -10.7
-70.875284 43.078420 0.0
-70.873098 43.078451 0.0
-70.867882 43.078456 -4.9
-70.869118 43.078459 -9.4
-70.881593 43.078490 -0.3
-70.879365 43.078548 -2.1
-70.880437 43.078551 -1.8
-70.878998 43.078570 -1.2
-70.880712 43.078579 -0.6
-70.866615 43.078587 -3.0
-70.867004 43.078593 -3.7
-70.881154 43.078606 -0.3
-70.870140 43.078612 -11.0
-70.868245 43.078659 -5.5
-70.880251 43.078670 -2.1
-70.869090 43.078720 -9.8
-70.871676 43.078737 -3.0
-70.879187 43.078781 -2.1
-70.868679 43.078826 -8.5
-70.867912 43.078840 -4.9
-70.869462 43.078854 -11.3
-70.870129 43.078887 -10.4
-70.880698 43.078887 -0.3
-70.880070 43.078895 -2.1
-70.880415 43.078906 -0.6
-70.870898 43.078926 -7.9
-70.878815 43.078929 -1.5
-70.869076 43.078943 -10.7
-70.873093 43.079004 0.0
-70.882784 43.079018 -0.6
-70.875312 43.079043 0.0
-70.882276 43.079048 -2.1
-70.867065 43.079065 -4.0
-70.879040 43.079065 -2.4
-70.881618 43.079076 -0.9
-70.866582 43.079084 -3.4
-70.868243 43.079090 -7.0
-70.877251 43.079134 -0.3
-70.881068 43.079143 -0.6
-70.871601 43.079148 -1.2
-70.880162 43.079165 -0.9
-70.869540 43.079193 -11.6
-70.880465 43.079195 -0.3
-70.867868 43.079218 -5.8
-70.879301 43.079265 -3.0
-70.879798 43.079268 -1.8
-70.868643 43.079290 -10.1
-70.866820 43.079295 -3.7
-70.878843 43.079320 -2.4
-70.870057 43.079348 -10.4
-70.870890 43.079415 -5.2
-70.867059 43.079440 -4.6
-70.868220 43.079454 -8.2
-70.869437 43.079515 -11.9
-70.878723 43.079526 -2.7
-70.879332 43.079529 -2.7
-70.866620 43.079543 -4.3
-70.873090 43.079554 0.0
-70.867398 43.079562 -5.5
-70.879804 43.079570 -1.2
-70.871626 43.079587 -0.3
-70.867982 43.079626 -7.9
-70.869948 43.079631 -9.8
-70.875290 43.079637 0.0
-70.868807 43.079656 -11.6
-70.880137 43.079684 -0.6
-70.879229 43.079759 -2.7
-70.878957 43.079773 -3.0
-70.878620 43.079806 -3.0
-70.879520 43.079823 -1.5
-70.870904 43.079906 -3.0
-70.867009 43.079943 -5.8
-70.875262 43.079943 -0.2
-70.871698 43.079951 0.0
-70.866290 43.079956 -3.0
-70.869507 43.079956 -11.6
-70.877195 43.079965 -0.3
-70.866632 43.079984 -5.2
-70.878984 43.079995 -3.0
-70.881645 43.080018 -0.3
-70.878504 43.080029 -3.4
-70.870034 43.080034 -6.7
-70.868018 43.080059 -9.4
-70.868804 43.080076 -12.2
-70.881243 43.080101 -0.3
-70.873115 43.080134 0.0
-70.880145 43.080176 -0.3
-70.879237 43.080179 -1.5
-70.871709 43.080243 0.0
-70.875240 43.080256 -0.2
-70.880882 43.080268 -0.3
-70.877982 43.080312 -3.7
-70.878312 43.080315 -3.7
-70.870876 43.080343 -1.8
-70.868832 43.080351 -12.5
-70.869451 43.080356 -11.0
-70.877123 43.080406 -1.2
-70.867020 43.080443 -8.2
-70.878943 43.080445 -1.8
-70.866512 43.080495 -6.7
-70.870057 43.080495 -5.5
-70.868095 43.080504 -11.6
-70.880548 43.080523 -0.3
-70.878501 43.080540 -3.4
-70.877540 43.080556 -4.0
-70.880082 43.080562 -2.4
-70.875282 43.080584 -0.2
-70.882670 43.080631 -0.3
-70.868973 43.080656 -11.9
-70.878040 43.080726 -4.3
-70.869518 43.080795 -9.1
-70.877198 43.080798 -4.0
-70.873243 43.080801 0.0
-70.877548 43.080806 -4.6
-70.882332 43.080809 -0.2
-70.876662 43.080829 -3.7
-70.870009 43.080848 -5.5
-70.867020 43.080879 -10.7
-70.868145 43.080895 -12.8
-70.871745 43.080898 0.0
-70.866518 43.080909 -10.1
-70.876295 43.080912 -3.4
-70.870862 43.080915 -0.6
-70.880076 43.080943 -0.3
-70.879443 43.080951 -0.3
-70.875270 43.080973 -1.5
-70.882048 43.080973 -0.2
-70.875970 43.081004 -3.0
-70.881732 43.081109 -0.2
-70.876640 43.081134 -4.0
-70.868984 43.081137 -10.7
-70.875607 43.081143 -2.7
-70.877170 43.081148 -4.6
-70.879070 43.081162 -0.3
-70.875357 43.081193 -2.4
-70.869898 43.081206 -5.5
-70.869495 43.081226 -6.4
-70.866534 43.081234 -11.0
-70.873309 43.081268 0.0
-70.878284 43.081284 -1.2
-70.877851 43.081301 -2.1
-70.878690 43.081301 -0.3
-70.876140 43.081326 -3.0
-70.881451 43.081331 -0.3
-70.877443 43.081365 -3.7
-70.868226 43.081368 -13.7
-70.867070 43.081376 -11.9
-70.870823 43.081390 -0.3
-70.875026 43.081390 -2.1
-70.880118 43.081409 -0.3
-70.875326 43.081429 -1.8
-70.870198 43.081443 -2.1
-70.876632 43.081451 -4.0
-70.878409 43.081465 -0.3
-70.881132 43.081509 -0.3
-70.866643 43.081512 -11.0
-70.873354 43.081518 -1.5
-70.875657 43.081531 -2.4
-70.876307 43.081537 -3.7
-70.871782 43.081556 0.0
-70.869790 43.081601 -4.0
-70.874362 43.081606 -2.4
-70.868232 43.081618 -14.3
-70.869548 43.081618 -5.5
-70.877140 43.081637 -2.4
-70.880834 43.081645 -0.3
-70.878043 43.081706 -0.3
-70.874051 43.081709 -2.4
-70.875315 43.081709 -1.5
-70.868982 43.081723 -8.2
-70.874823 43.081779 -1.2
-70.873365 43.081787 -2.7
-70.870873 43.081793 -0.3
-70.873723 43.081798 -1.8
-70.867820 43.081826 -14.6
-70.880090 43.081829 -0.3
-70.867132 43.081845 -12.2
-70.880570 43.081845 -0.3
-70.874440 43.081923 -0.9
-70.870184 43.081929 -0.6
-70.877701 43.081948 -0.3
-70.877151 43.081959 -0.3
-70.874082 43.081968 -0.9
-70.869448 43.081973 -4.0
-70.869765 43.081995 -2.1
-70.871801 43.081995 -0.6
-70.873626 43.082031 -1.2
-70.868654 43.082040 -11.9
-70.866676 43.082043 -12.8
-70.877409 43.082056 -0.3
-70.880240 43.082070 -0.3
-70.875290 43.082079 -2.4
-70.874662 43.082112 -1.5
-70.872873 43.082123 -2.4
-70.873207 43.082134 -1.8
-70.869090 43.082148 -5.8
-70.872593 43.082151 -2.7
-70.867579 43.082168 -14.3
-70.873490 43.082198 -0.3
-70.879912 43.082215 -0.3
-70.880087 43.082215 -0.3
-70.869645 43.082237 -1.2
-70.870837 43.082279 -0.3
-70.874309 43.082306 -2.1
-70.871826 43.082309 -1.8
-70.866412 43.082315 -14.0
-70.879643 43.082331 -0.3
-70.869448 43.082340 -1.8
-70.872793 43.082359 -2.1
-70.866968 43.082395 -14.3
-70.868637 43.082420 -10.7
-70.877134 43.082423 0.0
-70.870087 43.082426 -0.6
-70.875282 43.082426 -2.7
-70.872334 43.082451 -4.0
-70.873470 43.082456 -1.8
-70.870818 43.082509 -0.3
-70.867345 43.082540 -14.3
-70.879334 43.082548 -0.3
-70.873795 43.082559 -3.0
-70.872029 43.082579 -4.0
-70.882815 43.082595 -0.3
-70.871265 43.082604 -2.7
-70.869076 43.082620 -3.7
-70.866815 43.082670 -14.0
-70.871657 43.082693 -4.0
-70.879034 43.082712 -0.3
-70.870537 43.082731 -3.4
-70.875343 43.082737 -1.8
-70.869437 43.082748 -2.4
-70.873362 43.082762 -3.7
-70.868620 43.082765 -7.6
-70.870207 43.082812 -3.0
-70.877087 43.082815 0.0
-70.871270 43.082859 -3.0
-70.867187 43.082929 -14.3
-70.870793 43.082931 -3.0
-70.878734 43.082940 -0.3
-70.866751 43.082973 -14.6
-70.873554 43.082990 -2.7
-70.870415 43.083012 -2.4
-70.872907 43.083015 -3.4
-70.880112 43.083023 -0.3
-70.882765 43.083065 -0.2
-70.875351 43.083068 0.0
-70.869482 43.083079 -2.4
-70.871812 43.083104 -2.1
-70.878393 43.083159 -0.2
-70.868579 43.083184 -6.4
-70.869726 43.083215 -2.4
-70.870109 43.083226 -2.1
-70.877079 43.083231 0.0
-70.870657 43.083248 -2.1
-70.872451 43.083268 -3.0
-70.873645 43.083293 -0.3
-70.878168 43.083326 -0.2
-70.867243 43.083381 -12.5
-70.875326 43.083395 0.2
-70.898765 43.066762 -0.9
-70.890304 43.066770 -1.8
-70.894148 43.066784 -1.2
-70.895370 43.066784 -2.1
-70.892409 43.066809 -1.2
-70.884568 43.066815 -3.0
-70.885087 43.066826 -3.4
-70.887998 43.066834 -1.8
-70.888776 43.066840 -1.8
-70.896898 43.066851 -1.5
-70.894898 43.066854 -1.5
-70.898101 43.066873 -1.2
-70.888434 43.066901 -1.5
-70.892104 43.066901 -1.5
-70.896393 43.066909 -1.5
-70.898454 43.066918 -0.6
-70.889668 43.066920 -1.5
-70.899173 43.066929 -0.9
-70.893654 43.066948 -1.2
-70.887134 43.066954 -2.1
-70.895429 43.066954 -1.5
-70.887440 43.066968 -1.5
-70.884059 43.066976 -3.0
-70.898234 43.066990 -0.3
-70.886437 43.067018 -2.4
-70.897812 43.067018 -0.3
-70.889298 43.067020 -1.5
-70.893157 43.067037 -1.5
-70.894384 43.067048 -1.8
-70.891709 43.067065 -1.2
-70.892495 43.067073 -1.5
-70.895751 43.067093 -1.2
-70.885715 43.067095 -2.7
-70.888962 43.067120 -1.5
-70.883159 43.067129 -2.7
-70.889876 43.067143 -1.2
-70.887098 43.067151 -1.5
-70.887820 43.067179 -1.5
-70.888604 43.067179 -1.5
-70.891390 43.067190 -1.2
-70.883562 43.067195 -3.0
-70.885120 43.067209 -3.0
-70.884201 43.067212 -3.4
-70.898015 43.067212 -0.3
-70.899232 43.067212 0.0
-70.893782 43.067218 -1.8
-70.895262 43.067259 -1.2
-70.896909 43.067265 -0.6
-70.888248 43.067268 -1.5
-70.892218 43.067268 -1.5
-70.897284 43.067268 -0.3
-70.894879 43.067279 -1.2
-70.894423 43.067287 -1.5
-70.897618 43.067295 -0.3
-70.886395 43.067301 -1.5
-70.892490 43.067320 -1.5
-70.892490 43.067320 -1.5
-70.890982 43.067340 -1.2
-70.896654 43.067354 -0.6
-70.887923 43.067356 -1.8
-70.894084 43.067376 -1.5
-70.891759 43.067381 -1.5
-70.895812 43.067384 -0.9
-70.883179 43.067406 -3.4
-70.896323 43.067406 -0.3
-70.893048 43.067423 -1.8
-70.885659 43.067445 -1.8
-70.887440 43.067454 -1.5
-70.886920 43.067462 -1.5
-70.899234 43.067484 0.3
-70.890629 43.067493 -1.2
-70.895398 43.067501 -0.6
-70.892687 43.067504 -1.8
-70.891354 43.067515 -1.5
-70.894937 43.067518 -0.9
-70.897909 43.067568 0.3
