-70.632732 43.126550 -0.6
-70.631713 43.126561 -4.0
-70.632390 43.126572 -0.9
-70.631202 43.126586 -6.1
-70.631852 43.127161 -3.7
-70.631027 43.127233 -6.4
-70.631996 43.127236 -1.8
-70.630393 43.127239 -7.0
-70.632527 43.127245 -3.4
-70.631535 43.127256 -3.4
-70.632115 43.127320 -1.5
-70.632254 43.127378 -2.1
-70.630565 43.127428 -6.4
-70.632390 43.127483 -3.4
-70.630732 43.127517 -6.4
-70.632521 43.127558 -1.8
-70.632624 43.127583 -0.3
-70.630890 43.127611 -6.7
-70.632415 43.127703 -1.8
-70.630732 43.127708 -6.7
-70.629618 43.127714 -7.3
-70.632774 43.127725 -1.2
-70.630124 43.127731 -6.7
-70.631202 43.127761 -6.1
-70.629482 43.127767 -7.3
-70.628882 43.127775 -7.6
-70.632207 43.127803 -4.0
-70.629990 43.127856 -7.0
-70.631357 43.127872 -5.8
-70.632477 43.127920 -3.4
-70.631949 43.127939 -5.2
-70.629065 43.127942 -7.3
-70.629374 43.127942 -7.3
-70.631765 43.127942 -5.5
-70.632768 43.127942 -1.2
-70.631527 43.127945 -5.5
-70.631274 43.127964 -6.1
-70.632210 43.127970 -4.6
-70.628690 43.127975 -7.9
-70.630660 43.127986 -6.4
-70.631046 43.127992 -6.1
-70.630004 43.128000 -6.7
-70.630288 43.128011 -7.0
-70.632602 43.128064 -3.4
-70.629302 43.128086 -7.0
-70.631221 43.128089 -6.1
-70.631663 43.128100 -5.5
-70.631838 43.128114 -5.2
-70.630610 43.128164 -6.7
-70.632435 43.128195 -4.0
-70.631496 43.128217 -5.5
-70.630413 43.128231 -6.7
-70.629493 43.128239 -7.0
-70.631996 43.128250 -5.2
-70.632265 43.128306 -4.6
-70.630904 43.128325 -6.1
-70.631299 43.128331 -5.8
-70.630568 43.128356 -6.1
-70.630277 43.128378 -6.4
-70.629682 43.128397 -6.7
-70.630021 43.128397 -6.7
-70.632121 43.128403 -4.9
-70.629485 43.128411 -7.0
-70.632760 43.128414 -2.7
-70.628899 43.128417 -7.3
-70.631699 43.128425 -5.5
-70.630732 43.128486 -6.1
-70.631215 43.128500 -5.8
-70.630215 43.128514 -6.4
-70.632452 43.128542 -4.3
-70.630968 43.128558 -6.1
-70.629924 43.128561 -6.4
-70.631390 43.128625 -5.5
-70.632035 43.128639 -4.9
-70.630399 43.128645 -6.1
-70.631838 43.128647 -4.9
-70.632629 43.128647 -3.4
-70.630768 43.128667 -5.8
-70.632374 43.128681 -4.6
-70.630127 43.128706 -6.1
-70.629740 43.128756 -6.7
-70.631082 43.128764 -5.8
-70.631674 43.128767 -5.2
-70.632774 43.128770 -4.0
-70.630593 43.128778 -6.1
-70.632193 43.128792 -4.9
-70.632371 43.128845 -4.6
-70.628449 43.128856 -7.0
-70.630302 43.128864 -5.8
-70.629213 43.128881 -6.4
-70.627977 43.128883 -7.6
-70.631271 43.128886 -5.5
-70.631818 43.128897 -5.2
-70.630477 43.128900 -5.8
-70.629599 43.128911 -6.7
-70.630763 43.128911 -5.8
-70.629857 43.128936 -6.1
-70.632543 43.128947 -4.9
-70.631671 43.128961 -5.2
-70.631154 43.128970 -5.2
-70.630968 43.129014 -5.5
-70.630518 43.129022 -5.8
-70.629429 43.129025 -6.7
-70.631871 43.129033 -4.9
-70.630321 43.129042 -5.8
-70.631479 43.129047 -5.2
-70.632688 43.129064 -4.6
-70.631104 43.129117 -5.2
-70.632104 43.129120 -4.9
-70.628407 43.129128 -7.3
-70.629265 43.129150 -6.7
-70.631685 43.129164 -5.2
-70.632507 43.129175 -4.9
-70.630710 43.129189 -5.5
-70.632265 43.129206 -4.9
-70.629990 43.129233 -6.4
-70.630240 43.129242 -6.1
-70.630471 43.129245 -5.8
-70.629729 43.129247 -6.4
-70.630879 43.129250 -5.2
-70.629468 43.129264 -6.7
-70.627190 43.129267 -7.9
-70.628763 43.129267 -7.0
-70.628515 43.129283 -7.3
-70.629102 43.129283 -6.7
-70.628277 43.129295 -7.3
-70.628077 43.129297 -7.6
-70.627874 43.129314 -7.6
-70.627665 43.129328 -7.9
-70.627446 43.129342 -7.9
-70.629688 43.129345 -6.4
-70.630679 43.129345 -5.5
-70.631832 43.129345 -4.9
-70.632777 43.129358 -4.9
-70.630152 43.129364 -6.1
-70.628852 43.129370 -7.0
-70.632185 43.129378 -4.9
-70.632490 43.129400 -4.9
-70.631315 43.129406 -4.9
-70.631515 43.129414 -4.9
-70.629868 43.129439 -6.1
-70.630488 43.129472 -5.5
-70.627190 43.129495 -7.6
-70.626507 43.129506 -8.2
-70.632077 43.129517 -4.9
-70.627779 43.129533 -7.3
-70.628002 43.129533 -7.3
-70.631143 43.129539 -4.9
-70.630910 43.129545 -5.2
-70.631590 43.129545 -4.9
-70.629693 43.129550 -5.8
-70.630657 43.129558 -5.2
-70.632404 43.129558 -5.2
-70.625849 43.129561 -8.5
-70.630157 43.129561 -5.5
-70.629949 43.129564 -5.5
-70.629418 43.129589 -6.1
-70.631882 43.129595 -4.9
-70.627010 43.129614 -7.9
-70.632738 43.129617 -5.5
-70.629179 43.129622 -6.4
-70.628927 43.129636 -6.4
-70.631329 43.129639 -4.9
-70.628665 43.129647 -6.7
-70.632204 43.129647 -4.9
-70.628402 43.129672 -6.7
-70.628165 43.129681 -7.0
-70.627724 43.129692 -7.3
-70.627485 43.129700 -7.6
-70.627229 43.129708 -7.6
-70.626574 43.129714 -8.2
-70.626352 43.129717 -8.2
-70.626802 43.129725 -7.9
-70.630104 43.129731 -5.5
-70.632646 43.129753 -5.5
-70.632429 43.129758 -5.2
-70.631579 43.129797 -4.6
-70.631277 43.129800 -4.6
-70.632007 43.129803 -4.9
-70.628354 43.129820 -7.0
-70.631049 43.129820 -4.6
-70.629415 43.129822 -6.1
-70.630807 43.129831 -4.9
-70.630571 43.129842 -5.2
-70.630332 43.129861 -5.2
-70.629902 43.129878 -5.5
-70.629690 43.129892 -5.5
-70.626721 43.129895 -8.2
-70.632649 43.129895 -5.8
-70.629024 43.129906 -6.1
-70.631832 43.129914 -4.9
-70.627565 43.129917 -7.3
-70.629229 43.129947 -6.1
-70.628768 43.129956 -6.4
-70.626988 43.129967 -7.6
-70.632321 43.129967 -5.2
-70.628538 43.129972 -6.4
-70.628293 43.130000 -6.7
-70.630474 43.130000 -5.2
-70.625757 43.130011 -8.8
-70.631235 43.130020 -4.6
-70.626293 43.130025 -8.2
-70.631635 43.130039 -4.6
-70.626552 43.130042 -8.2
-70.627865 43.130042 -7.0
-70.631963 43.130047 -4.9
-70.628829 43.130050 -6.4
-70.627624 43.130067 -7.0
-70.629107 43.130075 -6.1
-70.627371 43.130081 -7.3
-70.627171 43.130095 -7.6
-70.626943 43.130111 -7.6
-70.632532 43.130117 -5.2
-70.629599 43.130139 -5.5
-70.627954 43.130164 -7.0
-70.631729 43.130170 -4.6
-70.632065 43.130178 -5.5
-70.626407 43.130183 -8.2
-70.628915 43.130200 -6.1
-70.631107 43.130211 -4.9
-70.627227 43.130214 -7.6
-70.630888 43.130231 -4.9
-70.631915 43.130256 -4.9
-70.631307 43.130261 -4.6
-70.630149 43.130272 -5.5
-70.632718 43.130275 -5.5
-70.629443 43.130281 -5.8
-70.632302 43.130283 -4.9
-70.631527 43.130306 -4.3
-70.626271 43.130311 -8.2
-70.628746 43.130314 -6.1
-70.627088 43.130350 -7.6
-70.627782 43.130375 -7.3
-70.625877 43.130383 -8.5
-70.631771 43.130383 -4.3
-70.626471 43.130397 -7.9
-70.629288 43.130406 -5.8
-70.629988 43.130408 -5.5
-70.625132 43.130411 -8.8
-70.630793 43.130414 -4.6
-70.632121 43.130417 -1.8
-70.631315 43.130436 -4.6
-70.626685 43.130439 -7.9
-70.628565 43.130439 -6.4
-70.626129 43.130447 -8.2
-70.627271 43.130450 -7.3
-70.630543 43.130475 -4.9
-70.631854 43.130475 -2.4
-70.632302 43.130486 -3.7
-70.632621 43.130489 -5.2
-70.627507 43.130503 -7.3
-70.630968 43.130517 -4.6
-70.629838 43.130542 -5.5
-70.629115 43.130553 -5.8
-70.628385 43.130556 -6.4
-70.631793 43.130575 -4.6
-70.631510 43.130581 -4.6
-70.625985 43.130592 -8.2
-70.632490 43.130617 -5.2
-70.626779 43.130625 -7.9
-70.632038 43.130639 -5.2
-70.627488 43.130642 -7.3
-70.630477 43.130661 -4.9
-70.630213 43.130672 -4.9
-70.628940 43.130678 -5.8
-70.629679 43.130678 -5.5
-70.626410 43.130692 -7.9
-70.632365 43.130706 -5.2
-70.625485 43.130708 -8.5
-70.630946 43.130708 -4.6
-70.625857 43.130731 -8.2
-70.624896 43.130739 -8.8
-70.630668 43.130750 -4.6
-70.627218 43.130753 -7.6
-70.631460 43.130764 -4.3
-70.626210 43.130770 -7.9
-70.627507 43.130770 -7.0
-70.628577 43.130772 -6.1
-70.632713 43.130781 -4.9
-70.626813 43.130789 -7.6
-70.629735 43.130792 -5.5
-70.627988 43.130795 -6.7
-70.628774 43.130808 -6.1
-70.629238 43.130811 -5.8
-70.631782 43.130814 -4.3
-70.628349 43.130820 -6.4
-70.629479 43.130822 -5.5
-70.631215 43.130845 -4.6
-70.632215 43.130847 -4.9
-70.630140 43.130864 -4.9
-70.625724 43.130867 -8.2
-70.632546 43.130872 -4.9
-70.626474 43.130883 -7.9
-70.627207 43.130897 -7.3
-70.629888 43.130900 -5.2
-70.628621 43.130906 -6.1
-70.631571 43.130914 -3.4
-70.628138 43.130928 -6.4
-70.626099 43.130936 -8.2
-70.629307 43.130945 -5.8
-70.630549 43.130967 -4.6
-70.631832 43.130972 -3.4
-70.626918 43.130975 -7.6
-70.632093 43.130978 -3.0
-70.631177 43.130989 -4.0
-70.630329 43.130995 -4.6
-70.632393 43.131000 -4.6
-70.625588 43.131008 -8.5
-70.627593 43.131011 -6.7
-70.624765 43.131022 -8.5
-70.630860 43.131028 -4.3
-70.631460 43.131061 -3.4
-70.628543 43.131064 -6.1
-70.626715 43.131067 -7.6
-70.625999 43.131072 -7.9
-70.629129 43.131081 -5.8
-70.631979 43.131086 -2.1
-70.632604 43.131092 -3.0
-70.629849 43.131095 -5.2
-70.627340 43.131106 -6.7
-70.631035 43.131106 -3.0
-70.630290 43.131122 -4.6
-70.632265 43.131122 -3.0
-70.629507 43.131131 -5.2
-70.631727 43.131131 -1.8
-70.626168 43.131145 -7.9
-70.626910 43.131147 -7.6
-70.628288 43.131150 -6.1
-70.628007 43.131156 -6.4
-70.625440 43.131158 -8.5
-70.627774 43.131161 -6.7
-70.625807 43.131183 -8.2
-70.631321 43.131197 -3.0
-70.630029 43.131200 -4.6
-70.629254 43.131211 -5.2
-70.631860 43.131214 -1.8
-70.632479 43.131214 -1.8
-70.629735 43.131217 -4.9
-70.630560 43.131220 -4.6
-70.630877 43.131220 -3.7
-70.626599 43.131222 -7.9
-70.627190 43.131245 -7.0
-70.632107 43.131245 -2.1
-70.631643 43.131247 -1.2
-70.628113 43.131281 -6.4
-70.631510 43.131283 -0.9
-70.625307 43.131286 -8.5
-70.628782 43.131303 -5.8
-70.632343 43.131314 -1.5
-70.631274 43.131317 -2.1
-70.630760 43.131320 -3.4
-70.630396 43.131333 -4.3
-70.629965 43.131345 -4.6
-70.629513 43.131350 -5.2
-70.626979 43.131358 -7.0
-70.629121 43.131358 -5.2
-70.631710 43.131361 -0.9
-70.627418 43.131389 -7.0
-70.626585 43.131395 -7.6
-70.627938 43.131395 -6.4
-70.631960 43.131403 -0.6
-70.625882 43.131411 -8.2
-70.625185 43.131414 -8.5
-70.632215 43.131420 -1.5
-70.630590 43.131428 -3.4
-70.628624 43.131431 -6.1
-70.625549 43.131445 -8.2
-70.630246 43.131447 -4.0
-70.629357 43.131450 -5.2
-70.626318 43.131467 -7.9
-70.626771 43.131483 -7.3
-70.628418 43.131531 -5.8
-70.629574 43.131531 -3.4
-70.629768 43.131531 -4.9
-70.628832 43.131539 -5.2
-70.624774 43.131545 -8.5
-70.632077 43.131545 -1.2
-70.625371 43.131550 -8.2
-70.631849 43.131550 -0.9
-70.630449 43.131558 -3.7
-70.625029 43.131575 -8.5
-70.629177 43.131575 -4.9
-70.630113 43.131578 -3.7
-70.624288 43.131583 -8.8
-70.626143 43.131586 -7.9
-70.626579 43.131589 -7.6
-70.629454 43.131606 -1.8
-70.627068 43.131617 -7.0
-70.627590 43.131620 -6.7
-70.627868 43.131633 -6.7
-70.628243 43.131645 -5.8
-70.631913 43.131661 -0.6
-70.630288 43.131667 -3.4
-70.629913 43.131678 -4.3
-70.626382 43.131683 -7.6
-70.625582 43.131692 -8.5
-70.629010 43.131695 -2.1
-70.628571 43.131703 -3.7
-70.630788 43.131708 -0.3
-70.624865 43.131717 -8.8
-70.625296 43.131717 -8.5
-70.629538 43.131722 -2.7
-70.629290 43.131725 -1.2
-70.629821 43.131783 -4.0
-70.630668 43.131783 -2.1
-70.630135 43.131789 -3.7
-70.629182 43.131797 -0.6
-70.628363 43.131825 -6.1
-70.626702 43.131828 -7.3
-70.626188 43.131831 -7.6
-70.628804 43.131831 -4.6
-70.629346 43.131836 -2.1
-70.627257 43.131845 -7.0
-70.624718 43.131847 -8.8
-70.625827 43.131853 -8.2
-70.627518 43.131864 -7.0
-70.624188 43.131867 -8.8
-70.627879 43.131867 -6.7
-70.630527 43.131883 -3.0
-70.629688 43.131886 -0.9
-70.630921 43.131895 -1.2
-70.630027 43.131914 -3.7
-70.632274 43.131914 -0.3
-70.631635 43.131922 -0.6
-70.628185 43.131931 -6.7
-70.629015 43.131933 -2.4
-70.631399 43.131939 -0.9
-70.628618 43.131945 -6.1
-70.632465 43.131945 -0.6
-70.626538 43.131953 -7.6
-70.625277 43.131956 -8.8
-70.629207 43.131958 -2.4
-70.630840 43.131964 -2.1
-70.624590 43.132000 -8.8
-70.629521 43.132000 -1.5
-70.629696 43.132000 -3.0
-70.632171 43.132000 -2.1
-70.628877 43.132006 -4.0
-70.630399 43.132008 -4.0
-70.625043 43.132011 -8.8
-70.631488 43.132025 -2.1
-70.629879 43.132033 -4.3
-70.626346 43.132058 -7.6
-70.630743 43.132061 -2.7
-70.628454 43.132064 -6.4
-70.627157 43.132078 -7.0
-70.631252 43.132078 -2.7
-70.625852 43.132081 -7.9
-70.626929 43.132083 -7.3
-70.628990 43.132092 -4.3
-70.625532 43.132095 -8.5
-70.632310 43.132097 -3.0
-70.629363 43.132106 -1.8
-70.632074 43.132117 -3.7
-70.627490 43.132120 -7.0
-70.630621 43.132142 -4.3
-70.623915 43.132147 -9.1
-70.624468 43.132147 -9.1
-70.627852 43.132156 -6.7
-70.630215 43.132164 -5.2
-70.629774 43.132170 -4.0
-70.631321 43.132178 -4.3
-70.632771 43.132189 -3.0
-70.628565 43.132195 -6.1
-70.628296 43.132197 -6.4
-70.628838 43.132206 -5.5
-70.631007 43.132206 -4.6
-70.626752 43.132214 -7.3
-70.625440 43.132217 -8.2
-70.631952 43.132231 -3.7
-70.624090 43.132247 -9.1
-70.624985 43.132247 -9.1
-70.625993 43.132256 -7.9
-70.629179 43.132267 -3.0
-70.629382 43.132267 -2.7
-70.632663 43.132278 -3.4
-70.630499 43.132292 -5.2
-70.629654 43.132295 -3.4
-70.630057 43.132295 -4.9
-70.624332 43.132297 -9.4
-70.631107 43.132336 -4.9
-70.625482 43.132339 -8.2
-70.625235 43.132342 -9.1
-70.627132 43.132347 -7.3
-70.628610 43.132347 -6.1
-70.630879 43.132350 -4.9
-70.624824 43.132367 -9.4
-70.632010 43.132370 -3.7
-70.627493 43.132378 -7.0
-70.626665 43.132392 -7.6
-70.632565 43.132406 -3.7
-70.628221 43.132414 -6.4
-70.630365 43.132414 -5.5
-70.627940 43.132422 -6.7
-70.631738 43.132433 -4.0
-70.628929 43.132447 -5.5
-70.624229 43.132453 -9.8
-70.624649 43.132464 -9.4
-70.625313 43.132475 -8.5
-70.625632 43.132481 -8.2
-70.629849 43.132481 -4.6
-70.625049 43.132486 -9.4
-70.628435 43.132495 -6.1
-70.632440 43.132500 -3.4
-70.626502 43.132517 -6.7
-70.626243 43.132528 -7.6
-70.630229 43.132528 -5.5
-70.627754 43.132533 -6.7
-70.629402 43.132545 -3.4
-70.626821 43.132564 -7.6
-70.628743 43.132575 -6.1
-70.630821 43.132578 -4.9
-70.630602 43.132586 -5.2
-70.623760 43.132595 -10.1
-70.631774 43.132595 -3.4
-70.627157 43.132597 -7.0
-70.625474 43.132600 -8.8
-70.625102 43.132603 -8.8
-70.624079 43.132606 -9.8
-70.632346 43.132606 -2.7
-70.624874 43.132611 -9.8
-70.624357 43.132620 -9.4
-70.628277 43.132620 -6.1
-70.624549 43.132628 -9.8
-70.630093 43.132639 -5.8
-70.627527 43.132647 -6.7
-70.631507 43.132650 -3.7
-70.629654 43.132664 -3.7
-70.626265 43.132667 -6.4
-70.627765 43.132670 -5.2
-70.629271 43.132675 -1.2
-70.626629 43.132686 -6.4
-70.628582 43.132700 -6.4
-70.625335 43.132708 -7.9
-70.632213 43.132708 -3.0
-70.626890 43.132728 -4.3
-70.624940 43.132733 -8.8
-70.625957 43.132733 -6.1
-70.628104 43.132747 -4.6
-70.624732 43.132756 -8.8
-70.627315 43.132764 -7.0
-70.627599 43.132767 -4.3
-70.624457 43.132770 -9.1
-70.623988 43.132775 -8.8
-70.630596 43.132783 -5.2
-70.629124 43.132786 -1.8
-70.626477 43.132797 -5.8
-70.630296 43.132814 -4.9
-70.625196 43.132822 -6.1
-70.627460 43.132822 -5.2
-70.632102 43.132822 -2.7
-70.629410 43.132836 -4.6
-70.631538 43.132836 -3.7
-70.628443 43.132842 -4.0
-70.629904 43.132853 -5.2
-70.628043 43.132856 -3.7
-70.632749 43.132875 -1.8
-70.627157 43.132881 -6.7
-70.623874 43.132897 -7.9
-70.624313 43.132897 -7.6
-70.628890 43.132903 -4.6
-70.631229 43.132908 -3.7
-70.631974 43.132908 -2.1
-70.625868 43.132914 -5.2
-70.626282 43.132917 -6.4
-70.626643 43.132917 -2.7
-70.627877 43.132920 -5.8
-70.625632 43.132928 -4.3
-70.625077 43.132933 -4.0
-70.624727 43.132942 -6.7
-70.628293 43.132958 -3.0
-70.627318 43.132964 -6.1
-70.629774 43.132970 -4.6
-70.630379 43.132983 -4.9
-70.630063 43.133003 -1.8
-70.629207 43.133017 -4.9
-70.631838 43.133022 -1.5
-70.626410 43.133028 -4.6
-70.624596 43.133031 -5.2
-70.624174 43.133036 -5.2
-70.626074 43.133045 -5.5
-70.623768 43.133047 -6.4
-70.625643 43.133053 -4.0
-70.628674 43.133058 -5.8
-70.624929 43.133061 -3.7
-70.623488 43.133070 -3.7
-70.628135 43.133070 -5.2
-70.629946 43.133078 -2.1
-70.631277 43.133078 -3.0
-70.629654 43.133089 -4.3
-70.627757 43.133097 -4.9
-70.625335 43.133100 -3.7
-70.626854 43.133108 -4.6
-70.627043 43.133108 -5.5
-70.627499 43.133139 -4.3
-70.623110 43.133142 -5.2
-70.624507 43.133145 -3.4
-70.624054 43.133167 -4.0
-70.625488 43.133167 -1.8
-70.629846 43.133167 -2.1
-70.624802 43.133172 -2.7
-70.627946 43.133181 -5.2
-70.629024 43.133181 -3.7
-70.631177 43.133186 -3.4
-70.623654 43.133189 -5.2
-70.626215 43.133195 -2.7
-70.628502 43.133195 -3.0
-70.630935 43.133206 -3.7
-70.629532 43.133208 -4.0
-70.625174 43.133217 -2.4
-70.625843 43.133222 -1.8
-70.627643 43.133242 -2.7
-70.629760 43.133245 -0.3
-70.626852 43.133247 -3.4
-70.628907 43.133275 -3.4
-70.624113 43.133278 -3.7
-70.624696 43.133286 -1.5
-70.624368 43.133289 -2.4
-70.623932 43.133297 -3.4
-70.627885 43.133300 -5.2
-70.628227 43.133314 -4.3
-70.629424 43.133317 -3.4
-70.625002 43.133325 -2.1
-70.623524 43.133328 -4.3
-70.626690 43.133328 -2.1
-70.631435 43.133345 -1.2
-70.629677 43.133353 -0.6
-70.627307 43.133356 -0.9
-70.625924 43.133361 -1.5
-70.625207 43.133372 -1.5
-70.625615 43.133375 -0.6
-70.629932 43.133383 -2.4
-70.624207 43.133403 -1.5
-70.623788 43.133406 -3.0
-70.626557 43.133411 -1.2
-70.624507 43.133414 -2.4
-70.647425 43.126628 -0.6
-70.647572 43.126656 -0.3
-70.647033 43.126728 1.2
-70.647480 43.126783 -0.3
-70.647358 43.126786 -0.3
-70.646800 43.126839 0.9
-70.647041 43.126867 0.0
-70.646441 43.126895 0.9
-70.646078 43.126911 1.2
-70.647139 43.126956 0.2
-70.646830 43.126983 0.3
-70.646225 43.127064 0.6
-70.645280 43.127100 0.6
-70.646886 43.127103 0.3
-70.646650 43.127114 0.2
-70.645755 43.127122 0.3
-70.644891 43.127139 0.6
-70.644622 43.127161 0.0
-70.645903 43.127195 -0.2
-70.646083 43.127197 0.3
-70.646339 43.127203 0.2
-70.644622 43.127270 -2.1
-70.645083 43.127317 -0.2
-70.645503 43.127333 0.3
-70.644175 43.127345 -4.0
-70.645944 43.127358 -0.2
-70.646241 43.127392 0.3
-70.646428 43.127392 0.2
-70.645678 43.127425 -0.2
-70.644003 43.127436 -4.9
-70.644986 43.127467 -0.6
-70.643494 43.127481 0.3
-70.643144 43.127483 0.3
-70.644580 43.127489 -3.7
-70.644378 43.127492 -4.6
-70.645830 43.127492 0.0
-70.644828 43.127495 -3.0
-70.645225 43.127550 0.3
-70.645555 43.127550 -0.6
-70.645714 43.127550 -0.6
-70.643847 43.127553 -5.5
-70.643016 43.127575 0.0
-70.646241 43.127589 0.2
-70.643375 43.127608 -0.9
-70.644430 43.127625 -6.1
-70.644922 43.127636 -2.7
-70.645105 43.127642 -0.6
-70.645869 43.127642 0.2
-70.643691 43.127645 -4.6
-70.644228 43.127664 -6.7
-70.642853 43.127678 -0.6
-70.645453 43.127681 0.2
-70.645583 43.127692 0.3
-70.643580 43.127714 -3.4
-70.643222 43.127720 -2.7
-70.645744 43.127722 0.0
-70.644050 43.127728 -5.5
-70.645033 43.127764 -2.1
-70.646047 43.127770 -0.3
-70.633052 43.127772 -0.9
-70.642691 43.127795 -1.5
-70.643453 43.127800 -3.4
-70.643830 43.127803 -4.0
-70.644266 43.127820 -6.1
-70.644911 43.127822 -2.1
-70.645658 43.127825 -0.3
-70.643614 43.127839 -4.3
-70.632888 43.127842 -0.2
-70.643061 43.127847 -3.4
-70.644041 43.127864 -4.6
-70.644553 43.127870 -6.4
-70.644755 43.127870 -5.2
-70.645405 43.127878 -0.2
-70.633218 43.127886 -1.2
-70.643853 43.127903 -4.3
-70.642561 43.127933 -2.1
-70.645191 43.127936 -3.4
-70.643433 43.127942 -2.7
-70.642875 43.127964 -3.7
-70.645822 43.127981 0.0
-70.641904 43.127983 -0.3
-70.644428 43.127986 -6.4
-70.643225 43.127989 -4.0
-70.633074 43.128003 -1.8
-70.633365 43.128006 -0.6
-70.645411 43.128031 -0.6
-70.643003 43.128047 -4.0
-70.643394 43.128061 -3.4
-70.642433 43.128070 -2.7
-70.639810 43.128083 -0.3
-70.643900 43.128092 -3.7
-70.643608 43.128095 -4.0
-70.644600 43.128095 -6.4
-70.645155 43.128095 -3.7
-70.644141 43.128103 -4.0
-70.642803 43.128108 -4.0
-70.645333 43.128114 -0.3
-70.633238 43.128122 -0.9
-70.644439 43.128122 -6.4
-70.638943 43.128136 -0.6
-70.643147 43.128145 -4.0
-70.642983 43.128161 -4.0
-70.642605 43.128170 -3.7
-70.633565 43.128172 -0.3
-70.644955 43.128186 -4.3
-70.643947 43.128197 -3.0
-70.639657 43.128200 -0.6
-70.633090 43.128206 -1.8
-70.641688 43.128208 -2.1
-70.633396 43.128214 -0.6
-70.642405 43.128231 -3.7
-70.644650 43.128239 -6.7
-70.642769 43.128245 -4.0
-70.645200 43.128245 -0.9
-70.638804 43.128261 -1.2
-70.638188 43.128264 -0.3
-70.633710 43.128267 -0.2
-70.643416 43.128270 -0.6
-70.634093 43.128272 -0.2
-70.642569 43.128292 -3.4
-70.640210 43.128306 -0.3
-70.642219 43.128306 -3.4
-70.639529 43.128308 -0.9
-70.633554 43.128317 -0.6
-70.644194 43.128317 -4.9
-70.644908 43.128328 -4.6
-70.634352 43.128333 -0.3
-70.642875 43.128336 -3.0
-70.645083 43.128339 -0.6
-70.632929 43.128342 -2.4
-70.635232 43.128345 -1.2
-70.644741 43.128350 -5.8
-70.641496 43.128353 -3.0
-70.643711 43.128358 0.0
-70.642053 43.128361 -3.4
-70.633260 43.128364 -0.6
-70.644550 43.128367 -5.5
-70.643230 43.128372 -0.2
-70.633899 43.128375 -0.6
-70.638049 43.128381 -0.9
-70.642383 43.128381 -3.4
-70.644547 43.128381 -5.5
-70.639335 43.128389 -1.5
-70.638652 43.128397 -1.5
-70.636302 43.128403 -0.6
-70.640049 43.128406 -0.6
-70.641024 43.128428 -0.3
-70.635013 43.128431 -2.1
-70.634204 43.128436 -1.2
-70.642166 43.128447 -3.4
-70.633446 43.128461 -1.5
-70.644941 43.128467 -1.8
-70.635802 43.128472 -1.5
-70.641730 43.128472 -3.4
-70.641961 43.128475 -3.0
-70.633757 43.128481 -1.2
-70.637293 43.128481 -0.9
-70.641313 43.128483 -3.4
-70.644736 43.128489 -6.1
-70.640893 43.128492 -0.6
-70.642725 43.128492 -0.9
-70.639182 43.128503 -1.8
-70.637868 43.128508 -1.5
-70.644536 43.128508 -4.3
-70.643961 43.128517 0.0
-70.636107 43.128525 -0.9
-70.634815 43.128528 -2.7
-70.638488 43.128528 -2.1
-70.634029 43.128536 -1.2
-70.639902 43.128539 -1.2
-70.643030 43.128545 0.0
-70.633027 43.128550 -2.4
-70.641569 43.128556 -3.4
-70.643578 43.128567 0.3
-70.635582 43.128592 -2.1
-70.633663 43.128595 -1.2
-70.642141 43.128597 -3.0
-70.640760 43.128603 -1.5
-70.637157 43.128608 -2.1
-70.639010 43.128611 -2.1
-70.641825 43.128611 -3.0
-70.634621 43.128614 -3.4
-70.644519 43.128617 -3.4
-70.637727 43.128628 -2.1
-70.641391 43.128628 -3.7
-70.639746 43.128633 -1.5
-70.642508 43.128633 -0.9
-70.641077 43.128636 -3.7
-70.635918 43.128645 -1.5
-70.633174 43.128656 -2.7
-70.643839 43.128656 0.9
-70.644697 43.128661 -3.0
-70.634104 43.128667 -2.4
-70.644353 43.128670 -3.0
-70.633346 43.128672 -1.5
-70.641558 43.128672 -3.4
-70.636824 43.128675 -3.4
-70.638335 43.128678 -2.7
-70.633860 43.128697 -1.2
-70.643433 43.128706 0.3
-70.635377 43.128708 -2.1
-70.640599 43.128714 -2.4
-70.636268 43.128722 -0.9
-70.634429 43.128733 -3.7
-70.638840 43.128733 -2.4
-70.644503 43.128736 -3.4
-70.641366 43.128739 -3.4
-70.639593 43.128745 -2.1
-70.644864 43.128745 -0.6
-70.640188 43.128747 -0.2
-70.641997 43.128750 -2.7
-70.634246 43.128753 -3.0
-70.637013 43.128753 -2.7
-70.637599 43.128764 -2.7
-70.635727 43.128778 -2.4
-70.636660 43.128786 -4.0
-70.640857 43.128789 -4.0
-70.641644 43.128789 -3.0
-70.633193 43.128795 -2.7
-70.640090 43.128795 -0.6
-70.642289 43.128803 -0.3
-70.638149 43.128808 -3.0
-70.640421 43.128817 -3.4
-70.641178 43.128817 -3.4
-70.644180 43.128825 0.3
-70.636060 43.128833 -3.7
-70.635138 43.128836 -3.7
-70.643641 43.128845 1.2
-70.638668 43.128853 -2.7
-70.644872 43.128861 -0.3
-70.634429 43.128864 -4.0
-70.634618 43.128864 -4.0
-70.636846 43.128875 -3.7
-70.633535 43.128878 -2.4
-70.634127 43.128878 -3.7
-70.641878 43.128878 -1.2
-70.637429 43.128881 -3.4
-70.641025 43.128886 -3.7
-70.644503 43.128886 -4.6
-70.635527 43.128895 -4.0
-70.639982 43.128906 -2.7
-70.641475 43.128911 -2.7
-70.640438 43.128928 -4.0
-70.638015 43.128939 -3.4
-70.640702 43.128939 -4.0
-70.644036 43.128942 0.9
-70.635874 43.128947 -4.6
-70.632854 43.128961 -4.6
-70.634915 43.128961 -5.2
-70.633063 43.128964 -4.6
-70.636493 43.128964 -4.6
-70.640265 43.128967 -4.0
-70.638457 43.128975 -3.0
-70.633749 43.128986 -4.3
-70.639279 43.128989 -2.4
-70.644739 43.128989 -0.6
-70.636688 43.128992 -4.0
-70.641719 43.128992 -1.5
-70.633365 43.128995 -3.4
-70.634532 43.128997 -4.9
-70.635338 43.129011 -4.9
-70.640955 43.129017 -4.0
-70.637279 43.129020 -3.7
-70.634340 43.129025 -5.2
-70.644491 43.129064 -6.1
-70.640096 43.129067 -4.0
-70.637865 43.129072 -3.4
-70.640546 43.129072 -4.0
-70.634735 43.129081 -4.9
-70.633599 43.129097 -4.9
-70.634102 43.129103 -5.5
-70.638260 43.129106 -3.0
-70.639115 43.129108 -2.7
-70.641591 43.129111 -1.8
-70.644903 43.129111 -0.9
-70.633315 43.129125 -4.6
-70.634943 43.129125 -4.9
-70.635382 43.129125 -4.9
-70.635127 43.129133 -4.6
-70.635652 43.129139 -4.9
-70.636538 43.129139 -4.3
-70.633832 43.129142 -5.5
-70.635921 43.129142 -4.9
-70.641189 43.129145 -3.7
-70.634346 43.129147 -5.2
-70.636799 43.129164 -4.6
-70.637090 43.129172 -4.0
-70.638582 43.129175 -3.0
-70.639890 43.129175 -4.0
-70.636246 43.129183 -4.9
-70.637354 43.129186 -4.3
-70.644819 43.129186 -1.2
-70.639579 43.129200 -3.4
-70.644486 43.129200 -7.3
-70.637713 43.129211 -3.7
-70.638943 43.129214 -3.0
-70.640152 43.129217 -4.0
-70.640371 43.129220 -4.3
-70.634668 43.129222 -4.9
-70.639240 43.129225 -3.0
-70.641441 43.129225 -1.5
-70.632988 43.129228 -4.9
-70.634046 43.129231 -5.5
-70.635365 43.129264 -4.9
-70.644725 43.129264 -3.0
-70.638193 43.129270 -3.7
-70.638432 43.129275 -3.4
-70.636921 43.129281 -4.3
-70.637965 43.129281 -3.7
-70.633546 43.129283 -5.5
-70.639735 43.129292 -4.3
-70.639427 43.129297 -3.7
-70.636513 43.129306 -4.6
-70.637227 43.129306 -4.3
-70.636007 43.129317 -4.9
-70.644100 43.129317 -2.7
-70.638765 43.129320 -3.4
-70.635107 43.129325 -5.2
-70.635779 43.129325 -5.2
-70.635543 43.129336 -5.2
-70.644300 43.129345 -6.7
-70.634318 43.129350 -5.8
-70.634588 43.129353 -5.5
-70.634846 43.129358 -5.5
-70.645094 43.129358 -1.5
-70.640783 43.129361 -4.0
-70.637504 43.129364 -4.3
-70.641022 43.129364 -2.7
-70.640227 43.129367 -4.6
-70.641303 43.129367 -1.2
-70.645772 43.129367 0.6
-70.633882 43.129370 -5.8
-70.636246 43.129372 -4.6
-70.640541 43.129372 -4.6
-70.639602 43.129383 -4.3
-70.633140 43.129389 -5.5
-70.644803 43.129389 -6.7
-70.639296 43.129400 -4.0
-70.636735 43.129417 -4.6
-70.644000 43.129428 -0.9
-70.639838 43.129431 -4.9
-70.644441 43.129436 -7.0
-70.638574 43.129439 -3.4
-70.638268 43.129447 -3.0
-70.635252 43.129458 -6.1
-70.635002 43.129464 -6.1
-70.638846 43.129467 -3.7
-70.634496 43.129475 -6.4
-70.644944 43.129475 -5.2
-70.638107 43.129481 -3.4
-70.645397 43.129492 -0.6
-70.639438 43.129495 -4.6
-70.632952 43.129497 -5.5
-70.637290 43.129497 -4.6
-70.633271 43.129500 -5.8
-70.636063 43.129503 -5.5
-70.639135 43.129503 -4.0
-70.636965 43.129511 -4.9
-70.637927 43.129511 -3.7
-70.633718 43.129525 -6.4
-70.645580 43.129528 0.3
-70.643883 43.129536 -1.8
-70.636390 43.129542 -5.5
-70.641086 43.129542 -0.6
-70.636602 43.129547 -5.2
-70.635449 43.129570 -6.4
-70.635729 43.129570 -6.1
-70.646041 43.129570 0.6
-70.638243 43.129578 -3.4
-70.635207 43.129581 -6.7
-70.637677 43.129586 -4.0
-70.644219 43.129586 -10.4
-70.638946 43.129600 -4.3
-70.638579 43.129606 -4.0
-70.640533 43.129617 -1.5
-70.634054 43.129625 -6.4
-70.637435 43.129628 -4.0
-70.639874 43.129631 -4.3
-70.637110 43.129633 -4.6
-70.645458 43.129633 -0.6
-70.635888 43.129642 -6.1
-70.633424 43.129645 -6.1
-70.634815 43.129650 -6.7
-70.640950 43.129658 -0.3
-70.644716 43.129664 -9.1
-70.644472 43.129672 -11.0
-70.645194 43.129678 -0.3
-70.634535 43.129683 -6.7
-70.645886 43.129686 0.3
-70.637854 43.129692 -3.7
-70.633702 43.129700 -6.4
-70.636377 43.129700 -5.8
-70.639129 43.129700 -4.3
-70.638029 43.129708 -3.4
-70.633096 43.129720 -6.1
-70.643680 43.129722 -4.6
-70.645333 43.129722 -0.2
-70.638307 43.129725 -3.7
-70.632849 43.129739 -6.1
-70.638732 43.129739 -4.0
-70.645783 43.129750 -0.3
-70.634265 43.129756 -6.7
-70.640291 43.129758 -0.6
-70.635543 43.129761 -6.7
-70.636896 43.129770 -4.9
-70.643964 43.129775 -7.6
-70.633415 43.129795 -6.4
-70.638163 43.129797 -3.4
-70.645147 43.129806 -2.4
-70.639763 43.129808 -1.8
-70.645647 43.129808 0.6
-70.644994 43.129811 -4.0
-70.638993 43.129814 -2.4
-70.634993 43.129825 -7.0
-70.637815 43.129828 -3.4
-70.644766 43.129831 -7.0
-70.644478 43.129836 -10.7
-70.637299 43.129847 -4.0
-70.638577 43.129847 -3.0
-70.637546 43.129850 -3.7
-70.636204 43.129856 -6.1
-70.635899 43.129858 -6.4
-70.633685 43.129861 -6.4
-70.644253 43.129867 -8.8
-70.637960 43.129897 -3.4
-70.634463 43.129903 -6.7
-70.638818 43.129906 -1.8
-70.636660 43.129917 -4.9
-70.640061 43.129922 -0.3
-70.638432 43.129942 -2.7
-70.645430 43.129942 0.3
-70.633132 43.129953 -6.4
-70.635185 43.129953 -6.7
-70.643469 43.129953 -1.5
-70.639599 43.129958 -1.2
-70.637577 43.129972 -3.7
-70.643680 43.129975 -6.7
-70.644225 43.129978 -7.0
-70.644678 43.129983 -7.0
-70.633454 43.129992 -6.7
-70.637238 43.130000 -1.5
-70.638249 43.130008 -1.8
-70.637054 43.130031 -3.7
-70.634679 43.130042 -6.7
-70.632857 43.130045 -6.1
-70.636477 43.130047 -5.2
-70.638657 43.130047 -0.9
-70.633988 43.130061 -6.7
-70.635390 43.130064 -6.1
-70.644814 43.130078 -4.9
-70.644089 43.130081 -4.9
-70.636168 43.130083 -5.8
-70.645183 43.130083 -0.3
-70.637690 43.130086 -3.4
-70.643903 43.130092 -5.5
-70.638060 43.130097 -1.8
-70.635874 43.130117 -5.8
-70.635174 43.130131 -6.4
-70.639427 43.130131 0.2
-70.633410 43.130147 -6.4
-70.633210 43.130150 -6.1
-70.637368 43.130153 -0.9
-70.635596 43.130164 -6.1
-70.644450 43.130167 -6.4
-70.645069 43.130167 -1.8
-70.636352 43.130170 -5.2
-70.636835 43.130170 -4.3
-70.643222 43.130170 0.2
-70.634874 43.130175 -6.4
-70.643428 43.130175 -4.0
-70.637863 43.130178 -2.1
-70.637115 43.130192 -2.4
-70.643966 43.130206 -5.5
-70.632929 43.130220 -5.8
-70.634315 43.130231 -6.7
-70.637688 43.130253 -2.1
-70.644578 43.130264 -4.3
-70.636502 43.130270 -4.6
-70.635777 43.130283 -5.8
-70.634102 43.130289 -6.4
-70.637354 43.130297 -1.2
-70.633707 43.130308 -6.1
-70.637518 43.130311 -2.4
-70.633254 43.130317 -5.8
-70.644830 43.130320 -2.1
-70.644197 43.130328 -5.2
-70.643661 43.130331 -3.7
-70.635102 43.130333 -5.8
-70.636057 43.130336 -5.2
-70.636257 43.130345 -4.6
-70.636707 43.130347 -4.0
-70.634852 43.130364 -6.1
-70.636946 43.130372 -3.7
-70.634615 43.130389 -5.8
-70.643150 43.130397 -1.8
-70.632940 43.130406 -5.2
-70.644361 43.130406 -4.9
-70.635527 43.130411 -5.5
-70.642919 43.130425 0.9
-70.643733 43.130428 -3.4
-70.636488 43.130439 -4.0
-70.637110 43.130439 -3.0
-70.637327 43.130439 -2.4
-70.644039 43.130439 -4.0
-70.644697 43.130447 -1.8
-70.635327 43.130450 -5.5
-70.633502 43.130458 -5.8
-70.635854 43.130478 -4.9
-70.634027 43.130489 -5.8
-70.636152 43.130492 -4.6
-70.645250 43.130503 0.9
-70.636607 43.130514 -3.0
-70.643005 43.130525 -1.2
-70.634946 43.130539 -5.5
-70.644564 43.130539 -3.4
-70.643336 43.130547 -4.6
-70.644144 43.130558 -4.0
-70.633168 43.130561 -5.2
-70.643869 43.130561 -3.4
-70.636968 43.130570 -2.7
-70.634179 43.130578 -5.5
-70.635157 43.130578 -5.5
-70.635563 43.130581 -5.2
-70.633688 43.130583 -5.5
-70.632829 43.130595 -5.2
-70.636468 43.130603 -3.7
-70.636040 43.130622 -4.3
-70.637232 43.130622 -2.7
-70.634663 43.130631 -5.2
-70.642875 43.130642 -1.8
-70.643497 43.130642 -4.0
-70.636757 43.130656 -3.4
-70.644330 43.130658 -3.0
-70.643716 43.130664 -3.4
-70.645050 43.130670 0.6
-70.642655 43.130672 0.6
-70.643947 43.130675 -3.4
-70.633363 43.130683 -5.2
-70.634338 43.130689 -5.5
-70.635754 43.130700 -4.9
-70.633674 43.130722 -5.5
-70.633913 43.130722 -5.2
-70.635277 43.130725 -5.2
-70.636260 43.130733 -3.7
-70.643822 43.130756 -2.7
-70.644936 43.130756 -0.2
-70.635915 43.130764 -4.6
-70.634504 43.130772 -5.2
-70.643014 43.130778 -4.3
-70.633040 43.130789 -5.5
-70.637152 43.130811 -2.1
-70.635452 43.130822 -4.9
-70.636415 43.130828 -3.7
-70.643211 43.130828 -4.3
-70.643514 43.130828 -3.7
-70.643708 43.130836 -2.7
-70.644086 43.130847 -2.1
-70.634124 43.130853 -5.2
-70.642578 43.130856 -2.1
-70.636054 43.130864 -4.0
-70.636618 43.130864 -3.0
-70.634965 43.130881 -4.9
-70.644739 43.130897 -2.7
-70.636824 43.130917 -3.0
-70.642339 43.130931 -2.1
-70.635654 43.130933 -4.3
-70.643080 43.130933 -4.0
-70.632935 43.130947 -4.6
-70.643536 43.130950 -3.4
-70.645014 43.130958 0.6
-70.633440 43.130964 -5.2
-70.634315 43.130964 -4.9
-70.637163 43.130964 -1.8
-70.643305 43.130967 -3.4
-70.642758 43.130978 -4.6
-70.636452 43.130981 -3.4
-70.634777 43.130983 -4.6
-70.635840 43.130989 -4.0
-70.633760 43.130995 -4.9
-70.642053 43.131000 0.0
-70.637032 43.131014 -2.7
-70.636185 43.131017 -3.4
-70.635146 43.131025 -4.6
-70.644883 43.131042 -0.6
-70.642483 43.131053 -3.7
-70.643808 43.131053 -3.4
-70.644503 43.131056 -3.4
-70.633979 43.131058 -5.2
-70.635688 43.131089 -4.0
-70.636840 43.131089 -2.7
-70.642225 43.131095 -3.4
-70.633315 43.131100 -4.0
-70.635496 43.131106 -4.6
-70.643305 43.131106 -3.7
-70.643097 43.131108 -3.4
-70.633129 43.131117 -1.8
-70.644708 43.131117 -3.0
-70.642869 43.131125 -4.0
-70.635982 43.131131 -3.7
-70.637135 43.131139 -2.4
-70.634949 43.131172 -4.6
-70.634524 43.131175 -4.9
-70.636702 43.131189 -3.0
-70.642450 43.131225 -1.8
-70.642669 43.131225 -2.4
-70.637279 43.131231 -2.1
-70.644494 43.131242 -3.0
-70.635413 43.131245 -4.0
-70.633357 43.131247 -2.1
-70.636293 43.131250 -3.0
-70.642066 43.131250 -5.2
-70.633165 43.131253 -1.8
-70.633752 43.131264 -4.3
-70.642853 43.131264 -3.7
-70.643528 43.131275 -3.4
-70.636902 43.131283 -2.4
-70.634179 43.131292 -4.3
-70.634763 43.131297 -4.3
-70.644164 43.131306 -3.7
-70.637454 43.131308 -1.2
-70.642572 43.131342 -3.0
-70.636696 43.131345 -3.0
-70.642994 43.131347 -3.4
-70.635860 43.131358 -3.7
-70.636149 43.131358 -3.4
-70.635615 43.131364 -3.7
-70.637088 43.131367 -2.1
-70.633632 43.131383 -4.0
-70.642289 43.131406 -4.9
-70.643386 43.131408 -2.7
-70.637574 43.131417 -0.6
-70.644255 43.131417 -2.1
-70.635102 43.131428 -4.0
-70.634238 43.131436 -4.3
-70.636888 43.131436 -2.7
-70.636490 43.131445 -3.0
-70.634560 43.131458 -4.0
-70.635407 43.131481 -3.7
-70.641875 43.131497 -4.9
-70.642772 43.131497 -3.0
-70.637718 43.131500 -0.3
-70.633138 43.131514 -0.3
-70.633532 43.131514 -2.4
-70.636088 43.131514 -3.7
-70.635732 43.131517 -3.7
-70.643869 43.131520 -2.7
-70.643236 43.131531 -3.7
-70.642455 43.131539 -4.6
-70.634129 43.131558 -4.0
-70.634929 43.131561 -3.7
-70.633263 43.131578 -0.6
-70.633796 43.131581 -3.7
-70.635193 43.131583 -3.7
-70.637899 43.131586 0.0
-70.637210 43.131589 -1.5
-70.644083 43.131589 -2.7
-70.636260 43.131595 -3.4
-70.634618 43.131600 -3.7
-70.643725 43.131611 -2.4
-70.635521 43.131614 -3.7
-70.642005 43.131628 -5.8
-70.637060 43.131647 -1.8
-70.636432 43.131650 -3.0
-70.638046 43.131653 0.3
-70.633452 43.131656 -1.8
-70.635832 43.131658 -3.4
-70.636096 43.131658 -3.4
-70.642569 43.131658 -3.4
-70.637396 43.131672 -0.9
-70.642964 43.131695 -3.4
-70.635365 43.131697 -3.4
-70.641633 43.131697 -5.5
-70.643958 43.131711 -2.4
-70.634327 43.131722 -3.7
-70.635024 43.131725 -3.7
-70.642439 43.131728 -5.2
-70.638194 43.131739 0.9
-70.636646 43.131742 -2.7
-70.633993 43.131745 -3.4
-70.633590 43.131747 -2.1
-70.634821 43.131753 -3.4
-70.637574 43.131761 -0.3
-70.643489 43.131761 -3.7
-70.642161 43.131778 -6.1
-70.636329 43.131792 -2.7
-70.636815 43.131792 -2.1
-70.635640 43.131803 -3.4
-70.636132 43.131803 -3.0
-70.641730 43.131803 -4.9
-70.643289 43.131803 -2.7
-70.642708 43.131806 -3.7
-70.643819 43.131822 -2.1
-70.637718 43.131831 0.0
-70.638364 43.131831 1.2
-70.643091 43.131845 -3.4
-70.634213 43.131864 -3.7
-70.641561 43.131892 -3.7
-70.637866 43.131900 0.6
-70.642325 43.131906 -5.8
-70.634588 43.131908 -3.0
-70.635024 43.131908 -3.4
-70.635302 43.131914 -3.4
-70.633749 43.131920 -2.4
-70.635763 43.131922 -2.7
-70.643675 43.131922 -2.1
-70.642814 43.131933 -3.7
-70.633957 43.131936 -2.1
-70.636368 43.131942 -2.4
-70.642178 43.131947 -6.4
-70.641897 43.131956 -5.8
-70.637152 43.131958 -0.9
-70.634757 43.131964 -3.4
-70.636018 43.131967 -2.7
-70.636990 43.131967 -1.2
-70.633046 43.131972 -0.3
-70.634385 43.131975 -3.4
-70.643503 43.131978 -3.0
-70.636557 43.132017 -2.1
-70.641600 43.132020 -3.4
-70.643241 43.132025 -3.0
-70.636196 43.132031 -2.7
-70.637315 43.132033 -0.3
-70.642519 43.132053 -4.3
-70.633640 43.132056 -2.7
-70.642969 43.132058 -3.7
-70.632935 43.132072 -0.9
-70.636757 43.132083 -1.5
-70.634004 43.132086 -2.1
-70.634213 43.132095 -2.4
-70.634618 43.132095 -3.7
-70.637515 43.132103 0.0
-70.641489 43.132106 -0.2
-70.636346 43.132120 -2.4
-70.641930 43.132128 -4.3
-70.643708 43.132133 -1.2
-70.643380 43.132139 -3.0
-70.642730 43.132150 -4.0
-70.637719 43.132156 0.3
-70.642425 43.132158 -5.5
-70.635074 43.132161 -3.7
-70.642141 43.132161 -6.4
-70.636960 43.132164 -0.9
-70.633507 43.132170 -1.8
-70.635765 43.132170 -2.7
-70.641411 43.132181 0.0
-70.636502 43.132186 -1.8
-70.635954 43.132197 -2.1
-70.643097 43.132200 -3.7
-70.633907 43.132214 -3.0
-70.637129 43.132214 -0.3
-70.634368 43.132217 -4.6
-70.635382 43.132220 -3.0
-70.637908 43.132242 0.9
-70.643855 43.132264 -0.6
-70.643850 43.132267 -0.6
-70.642275 43.132272 -5.8
-70.634943 43.132281 -4.3
-70.636193 43.132281 -2.1
-70.641744 43.132281 0.0
-70.642922 43.132283 -3.7
-70.637335 43.132286 0.0
-70.643628 43.132286 -1.2
-70.641286 43.132289 0.3
-70.636668 43.132292 -1.2
-70.633368 43.132303 -0.6
-70.634554 43.132325 -4.9
-70.638089 43.132325 1.2
-70.637530 43.132328 0.3
-70.643261 43.132328 -3.4
-70.633802 43.132342 -2.1
-70.642614 43.132350 -5.5
-70.636821 43.132358 -0.6
-70.642375 43.132378 -5.8
-70.635629 43.132389 -2.7
-70.634840 43.132395 -3.7
-70.643114 43.132395 -3.4
-70.641133 43.132411 0.2
-70.633218 43.132414 -2.1
-70.635096 43.132414 -2.7
-70.637739 43.132417 0.9
-70.636990 43.132442 -0.2
-70.636440 43.132445 -1.2
-70.634246 43.132447 -4.3
-70.643425 43.132456 -2.1
-70.641528 43.132458 0.3
-70.642800 43.132461 -5.2
-70.633710 43.132470 -0.9
-70.637953 43.132475 1.2
-70.642541 43.132503 -5.5
-70.642119 43.132506 -4.9
-70.642347 43.132514 -6.1
-70.634724 43.132522 -2.4
-70.645208 43.132527 0.6
-70.637174 43.132533 0.2
-70.635365 43.132536 -2.4
-70.635799 43.132536 -1.8
-70.643283 43.132539 -3.0
-70.633110 43.132542 -2.7
-70.642936 43.132564 -5.2
-70.634152 43.132567 -2.4
-70.642686 43.132589 -5.2
-70.633565 43.132592 -2.1
-70.635046 43.132595 -2.1
-70.642197 43.132628 -4.3
-70.644061 43.132628 -0.6
-70.636643 43.132631 -0.2
-70.637366 43.132636 0.0
-70.634593 43.132645 -2.1
-70.643597 43.132647 -0.3
-70.633002 43.132661 -2.7
-70.635518 43.132678 -1.2
-70.643103 43.132678 -5.2
-70.633482 43.132686 -2.1
-70.634027 43.132689 -1.5
-70.643441 43.132689 -4.0
-70.644536 43.132692 -0.3
-70.635224 43.132695 -1.5
-70.636027 43.132703 -0.9
-70.637522 43.132714 0.9
-70.644969 43.132719 -0.9
-70.644208 43.132731 -3.7
-70.643694 43.132736 -2.1
-70.644639 43.132739 -0.9
-70.642425 43.132756 -0.9
-70.645525 43.132755 0.3
-70.632882 43.132767 -2.7
-70.634474 43.132772 -1.8
-70.642947 43.132781 -4.9
-70.636840 43.132783 0.3
-70.635065 43.132797 -0.9
-70.633402 43.132803 -2.1
-70.643553 43.132803 -4.9
-70.637694 43.132808 1.5
-70.643278 43.132822 -4.9
-70.635699 43.132825 -0.9
-70.644311 43.132828 -2.4
-70.633882 43.132831 -0.6
-70.635327 43.132833 -0.9
-70.644744 43.132838 -1.8
-70.645105 43.132838 -1.5
-70.643825 43.132850 -4.0
-70.636190 43.132853 -0.3
-70.634363 43.132881 -1.8
-70.643100 43.132881 -3.7
-70.642180 43.132883 0.3
-70.634943 43.132903 -0.9
-70.643675 43.132917 -5.5
-70.633321 43.132933 -1.8
-70.633743 43.132942 -1.5
-70.644883 43.132949 -3.0
-70.645280 43.132955 -1.2
-70.635449 43.132958 -0.3
-70.644497 43.132966 -2.7
-70.637047 43.132972 0.6
-70.643503 43.132995 -4.6
-70.645886 43.132996 0.6
-70.634810 43.133003 -0.6
-70.636393 43.133022 0.2
-70.644128 43.133030 -2.7
-70.643294 43.133042 -2.1
-70.643841 43.133061 -5.2
-70.644639 43.133074 -2.7
-70.633599 43.133086 -0.9
-70.635563 43.133089 -0.2
-70.643416 43.133114 -2.1
-70.645119 43.133116 -2.7
-70.645478 43.133130 -1.5
-70.644294 43.133144 -2.7
-70.644016 43.133149 -4.6
-70.643719 43.133175 -4.3
-70.636547 43.133192 0.6
-70.644769 43.133194 -2.7
-70.645625 43.133244 -1.8
-70.645353 43.133252 -2.7
-70.646225 43.133257 1.2
-70.643578 43.133266 -1.5
-70.644472 43.133285 -2.7
-70.643930 43.133288 -4.0
-70.644894 43.133319 -3.0
-70.644122 43.133324 -4.6
-70.643703 43.133355 -1.2
-70.629290 43.133425 -2.1
-70.630674 43.133431 -3.7
-70.630949 43.133436 -2.4
-70.628071 43.133439 -3.0
-70.625740 43.133456 -0.6
-70.625415 43.133478 -0.9
-70.627890 43.133536 -2.4
-70.630571 43.133556 -2.7
-70.624024 43.133558 -1.5
-70.630468 43.133656 -0.9
-70.630318 43.133756 0.6
-70.643825 43.133430 -1.5
-70.644655 43.133438 -2.7
-70.645550 43.133455 -3.0
-70.645841 43.133455 -3.0
-70.644297 43.133488 -4.0
-70.646533 43.133494 1.2
-70.645166 43.133499 -3.0
-70.643994 43.133555 -0.9
-70.644864 43.133580 -2.7
-70.644416 43.133605 -3.0
-70.645789 43.133638 -3.4
-70.646122 43.133646 -3.4
-70.644119 43.133660 -0.3
-70.646758 43.133682 1.2
-70.645444 43.133699 -3.4
-70.644461 43.133735 -1.5
-70.644661 43.133738 -2.7
-70.644247 43.133755 -0.3
-70.645136 43.133766 -2.1
-70.646328 43.133838 -3.7
-70.645991 43.133844 -3.7
-70.644861 43.133863 -2.4
-70.647014 43.133866 0.9
-70.645672 43.133885 -3.0
-70.644747 43.133938 -0.6
-70.644486 43.133969 0.0
-70.646180 43.133994 -4.3
-70.645033 43.133996 -1.2
-70.645447 43.133996 -1.8
-70.646561 43.134007 -3.4
-70.647233 43.134032 0.6
-70.645914 43.134088 -3.0
-70.645200 43.134102 -0.6
-70.645050 43.134152 -0.3
-70.645594 43.134157 -0.6
-70.647422 43.134174 0.9
-70.646383 43.134185 -4.6
-70.646766 43.134207 -3.0
-70.645358 43.134244 -0.3
-70.645730 43.134244 -0.3
-70.646166 43.134274 -3.7
-70.645861 43.134330 -0.3
-70.646591 43.134352 -4.6
-70.647005 43.134377 -1.8
-70.645355 43.134388 0.0
-70.646419 43.134416 -4.6
-70.646000 43.134419 -0.3
-70.647603 43.134427 -0.3
-70.647191 43.134496 -2.1
-70.646141 43.134527 -0.3
-70.646778 43.134530 -4.3
-70.647875 43.134574 -0.3
-70.646655 43.134596 -5.2
-70.646278 43.134630 -0.9
-70.647389 43.134649 -2.7
-70.647983 43.134657 -0.9
-70.646805 43.134699 -5.2
-70.647000 43.134705 -4.6
-70.648303 43.134724 -0.9
-70.648155 43.134749 -1.8
-70.646472 43.134763 -1.5
-70.647636 43.134788 -3.0
-70.646591 43.134844 -1.2
-70.648622 43.134849 -0.6
-70.647194 43.134852 -4.6
-70.648361 43.134860 -1.8
-70.648825 43.134932 -0.6
-70.647936 43.134949 -3.0
-70.647344 43.134974 -4.6
-70.648566 43.135013 -3.0
-70.649116 43.135074 -1.5
-70.648322 43.135077 -3.4
-70.647525 43.135102 -4.9
-70.648141 43.135132 -4.0
-70.649328 43.135149 -1.8
-70.648872 43.135171 -3.4
-70.648650 43.135213 -3.7
-70.647536 43.135244 -3.4
-70.649436 43.135255 -3.4
-70.647539 43.135260 -3.4
-70.647783 43.135269 -4.6
-70.649164 43.135338 -4.0
-70.648753 43.135427 -4.0
-70.648072 43.135449 -3.7
-70.648264 43.135485 -4.3
-70.649447 43.135507 -4.0
-70.648214 43.135610 -3.7
-70.648983 43.135610 -4.6
-70.648655 43.135674 -4.0
-70.649225 43.135741 -4.3
-70.648436 43.135744 -3.7
-70.649036 43.135807 -3.4
-70.648647 43.135869 -1.2
-70.649472 43.135871 -3.0
-70.649416 43.135969 -1.2
-70.648853 43.136019 -0.3
-70.649647 43.135160 -0.6
-70.649853 43.135244 -1.2
-70.650330 43.135307 -0.6
-70.650000 43.135319 -2.1
-70.650511 43.135371 -1.5
-70.654661 43.135399 -0.9
-70.649739 43.135438 -3.7
-70.653625 43.135441 -0.9
-70.653819 43.135455 -1.2
-70.650686 43.135457 -2.4
-70.650322 43.135469 -3.4
-70.655716 43.135496 -0.9
-70.654839 43.135502 -3.7
-70.650883 43.135519 -2.7
-70.653964 43.135519 -3.0
-70.655936 43.135524 -1.5
-70.651547 43.135535 -0.9
-70.653222 43.135563 -1.5
-70.654178 43.135566 -3.7
-70.651269 43.135569 -2.7
-70.658875 43.135569 -0.9
-70.652939 43.135580 -1.5
-70.657766 43.135580 -1.2
-70.650994 43.135605 -3.4
-70.655836 43.135610 -3.0
-70.656711 43.135616 -0.6
-70.651686 43.135619 -1.2
-70.654397 43.135619 -3.7
-70.655061 43.135621 -4.6
-70.650028 43.135624 -4.0
-70.656275 43.135627 -2.4
-70.650666 43.135632 -3.7
-70.657994 43.135632 -2.1
-70.653447 43.135635 -2.1
-70.651880 43.135638 -0.9
-70.656983 43.135655 -0.3
-70.653269 43.135660 -2.1
-70.659108 43.135663 -2.4
-70.654636 43.135666 -4.0
-70.657169 43.135669 -1.5
-70.653691 43.135671 -3.7
-70.649730 43.135674 -4.3
-70.651183 43.135685 -3.4
-70.652239 43.135688 -1.5
-70.655383 43.135694 -4.6
-70.658219 43.135694 -2.7
-70.654214 43.135716 -3.4
-70.654008 43.135719 -3.4
-70.657339 43.135719 -2.7
-70.657519 43.135719 -2.7
-70.654828 43.135727 -4.0
-70.658783 43.135730 -3.4
-70.658386 43.135741 -3.0
-70.656641 43.135744 -3.0
-70.652930 43.135746 -2.7
-70.653428 43.135746 -2.7
-70.651972 43.135752 -3.7
-70.652483 43.135757 -2.7
-70.659208 43.135766 -3.7
-70.651339 43.135771 -4.0
-70.659616 43.135774 -3.7
-70.650361 43.135785 -4.0
-70.650983 43.135788 -4.0
-70.656797 43.135788 -3.4
-70.660011 43.135788 -3.4
-70.660219 43.135788 -3.4
-70.650725 43.135794 -4.0
-70.659428 43.135802 -3.7
-70.654422 43.135805 -3.4
-70.653653 43.135807 -3.7
-70.655741 43.135810 -4.9
-70.655194 43.135830 -4.0
-70.657972 43.135832 -4.0
-70.657669 43.135841 -4.0
-70.656569 43.135846 -5.2
-70.660619 43.135846 -3.4
-70.658328 43.135857 -3.7
-70.658791 43.135863 -3.7
-70.650039 43.135874 -2.1
-70.652986 43.135877 -3.0
-70.652261 43.135880 -4.6
-70.658508 43.135891 -3.7
-70.653936 43.135896 -3.4
-70.656366 43.135896 -5.5
-70.656091 43.135902 -4.9
-70.657189 43.135905 -4.6
-70.654722 43.135916 -3.0
-70.651291 43.135919 -4.6
-70.654458 43.135919 -3.0
-70.653628 43.135927 -3.7
-70.651647 43.135930 -4.3
-70.655819 43.135938 -4.6
-70.653355 43.135941 -3.7
-70.660336 43.135941 -3.0
-70.655239 43.135944 -3.7
-70.659789 43.135944 -5.2
-70.652469 43.135946 -4.9
-70.658005 43.135946 -4.0
-70.654261 43.135949 -3.0
-70.650683 43.135955 -4.0
-70.655580 43.135963 -3.4
-70.654972 43.135969 -3.0
-70.659194 43.135974 -4.0
-70.649747 43.135982 -0.6
-70.651844 43.135985 -4.6
-70.658366 43.135999 -4.0
-70.649966 43.136005 -1.5
-70.656425 43.136005 -4.3
-70.659983 43.136010 -4.0
-70.660144 43.136016 -4.3
-70.657605 43.136019 -4.3
-70.651472 43.136027 -4.0
-70.659389 43.136030 -4.0
-70.654625 43.136032 -3.4
-70.653153 43.136035 -4.0
-70.650211 43.136038 -0.9
-70.652769 43.136052 -4.3
-70.652264 43.136055 -4.6
-70.655586 43.136060 -1.8
-70.652028 43.136066 -3.4
-70.653797 43.136071 -4.0
-70.659616 43.136077 -4.0
-70.655347 43.136082 -1.2
-70.655919 43.136088 -2.4
-70.654939 43.136091 -1.8
-70.658722 43.136091 -3.7
-70.650997 43.136099 -2.7
-70.651655 43.136116 -3.0
-70.652622 43.136116 -5.2
-70.659966 43.136124 -3.7
-70.656789 43.136138 -3.7
-70.657261 43.136141 -4.0
-70.655108 43.136149 -0.9
-70.660286 43.136152 -4.6
-70.660503 43.136152 -4.6
-70.656078 43.136155 -1.8
-70.659066 43.136157 -3.4
-70.652994 43.136166 -4.9
-70.655500 43.136169 -0.2
-70.650744 43.136177 -0.3
-70.659769 43.136182 -4.3
-70.657678 43.136185 -4.3
-70.654211 43.136188 -4.3
-70.657491 43.136188 -3.4
-70.658072 43.136191 -3.7
-70.652355 43.136196 -3.4
-70.651530 43.136202 -1.2
-70.651828 43.136202 -1.2
-70.657091 43.136207 -1.5
-70.651116 43.136210 -0.9
-70.660078 43.136221 -4.0
-70.653753 43.136224 -4.6
-70.658553 43.136235 -3.0
-70.659408 43.136241 -3.7
-70.654447 43.136249 -1.8
-70.658980 43.136257 -3.4
-70.653314 43.136282 -4.9
-70.651983 43.136291 -0.6
-70.658364 43.136291 -3.0
-70.659600 43.136307 -2.7
-70.652436 43.136324 -2.4
-70.659772 43.136346 -1.2
-70.653530 43.136360 -3.4
-70.652883 43.136363 -4.0
-70.660444 43.136363 -3.0
-70.652686 43.136366 -2.1
