-70.855090 42.536228 -9.8
-70.855115 42.536623 -9.8
-70.855143 42.537020 -9.5
-70.855143 42.537201 -9.5
-70.855143 42.537409 -10.1
-70.855143 42.537798 -9.6
-70.855140 42.538189 -9.3
-70.855137 42.538581 -9.0
-70.856293 42.544767 -2.2
-70.856310 42.544398 -2.6
-70.856329 42.544026 -3.1
-70.856349 42.543653 -3.7
-70.856368 42.543281 -4.2
-70.856357 42.542906 -4.4
-70.856346 42.542531 -4.4
-70.856335 42.542156 -4.4
-70.856321 42.541781 -4.4
-70.856301 42.541395 -4.5
-70.856279 42.541006 -4.8
-70.856257 42.540617 -5.3
-70.856232 42.540228 -5.6
-70.856215 42.539837 -6.2
-70.856196 42.539445 -6.9
-70.856176 42.539053 -8.0
-70.856154 42.538659 -8.9
-70.856115 42.538259 -9.2
-70.856076 42.537856 -9.6
-70.856037 42.537453 -9.8
-70.855996 42.537051 -9.5
-70.855962 42.536673 -9.6
-70.855929 42.536292 -9.2
-70.855893 42.535912 -9.3
-70.855857 42.535531 -9.2
-70.855874 42.535162 -9.2
-70.855889 42.534789 -8.9
-70.855906 42.534418 -8.8
-70.855923 42.534043 -8.5
-70.855923 42.533874 -10.2
-70.855923 42.533679 -9.6
-70.855923 42.533510 -10.4
-70.855923 42.533315 -9.8
-70.855923 42.532949 -10.5
-70.855923 42.532582 -10.4
-70.855917 42.532415 -8.3
-70.855909 42.532224 -8.3
-70.855895 42.531865 -8.3
-70.855878 42.531507 -8.2
-70.855861 42.531149 -8.0
-70.855853 42.530774 -7.9
-70.855845 42.530396 -7.7
-70.855834 42.530018 -4.7
-70.855825 42.529640 -4.4
-70.855820 42.529463 -1.7
-70.855814 42.529260 -2.5
-70.856370 42.529627 -5.0
-70.856389 42.530027 -7.3
-70.856409 42.530427 -7.7
-70.856428 42.530829 -7.9
-70.856450 42.531232 -8.0
-70.856500 42.531629 -8.2
-70.856539 42.531949 -8.3
-70.856550 42.532029 -10.7
-70.856573 42.532215 -10.1
-70.856600 42.532429 -10.7
-70.856650 42.532829 -10.1
-70.856661 42.533099 -9.9
-70.856667 42.533232 -8.6
-70.856687 42.533638 -8.6
-70.856707 42.534040 -8.6
-70.856726 42.534445 -8.9
-70.856701 42.534848 -8.9
-70.856674 42.535253 -9.2
-70.856646 42.535656 -9.0
-70.856615 42.536062 -8.9
-70.856576 42.536437 -8.9
-70.856537 42.536812 -9.2
-70.856499 42.537189 -9.0
-70.856457 42.537567 -9.8
-70.856437 42.537937 -9.5
-70.856415 42.538309 -9.2
-70.856396 42.538681 -8.9
-70.856374 42.539056 -7.9
-70.856374 42.539431 -6.9
-70.856374 42.539809 -6.2
-70.856374 42.540187 -5.7
-70.856376 42.540564 -5.3
-70.856387 42.540945 -4.8
-70.856399 42.541328 -4.5
-70.856410 42.541712 -4.4
-70.856424 42.542095 -4.4
-70.856462 42.542495 -4.2
-70.856501 42.542895 -4.2
-70.856540 42.543295 -4.2
-70.856582 42.543695 -3.7
-70.856601 42.544059 -3.1
-70.856624 42.544423 -2.5
-70.856646 42.544787 -1.9
-70.856668 42.545153 -1.2
-70.855782 42.544723 -2.6
-70.855824 42.544337 -3.1
-70.855865 42.543951 -3.6
-70.855910 42.543564 -4.2
-70.855954 42.543176 -4.4
-70.855946 42.542781 -4.7
-70.855935 42.542384 -4.7
-70.855924 42.541987 -4.7
-70.855912 42.541587 -4.8
-70.855885 42.541195 -4.8
-70.855854 42.540801 -5.1
-70.855824 42.540406 -5.6
-70.855793 42.540009 -6.0
-70.855787 42.539614 -6.8
-70.855779 42.539217 -7.6
-70.855771 42.538823 -8.6
-70.855762 42.538426 -9.2
-70.855724 42.538026 -9.5
-70.855682 42.537626 -9.8
-70.855640 42.537223 -9.8
-70.855599 42.536820 -9.8
-70.856299 42.536014 -9.2
-70.856340 42.535637 -9.2
-70.856385 42.535256 -9.5
-70.856399 42.535128 -8.6
-70.856429 42.534876 -9.0
-70.856474 42.534495 -8.9
-70.856462 42.534110 -8.6
-70.856448 42.533724 -8.8
-70.856439 42.533465 -8.8
-70.856434 42.533338 -10.4
-70.856425 42.533079 -9.8
-70.856420 42.532949 -10.4
-70.856384 42.532699 -10.1
-70.856364 42.532574 -10.4
-70.856336 42.532396 -10.4
-70.856309 42.532196 -10.7
-70.856289 42.532068 -8.5
-70.856250 42.531818 -8.5
-70.856192 42.531438 -8.3
-70.856170 42.531068 -8.2
-70.856148 42.530696 -7.9
-70.856125 42.530324 -7.6
-70.856100 42.529952 -5.6
-70.856139 42.529568 -3.7
-70.856153 42.529438 -2.8
-70.856178 42.529182 -4.4
-70.856220 42.528796 -5.3
-70.856261 42.528410 -5.3
-70.857181 42.528713 -6.3
-70.857156 42.529102 -6.5
-70.857131 42.529490 -6.9
-70.857106 42.529879 -7.7
-70.857078 42.530271 -8.0
-70.857056 42.530682 -8.2
-70.857031 42.531096 -8.3
-70.857020 42.531290 -8.3
-70.857006 42.531510 -11.0
-70.856981 42.531927 -11.0
-70.856970 42.532327 -10.4
-70.856959 42.532727 -10.2
-70.856956 42.532860 -10.2
-70.856950 42.532993 -8.6
-70.856948 42.533127 -8.8
-70.856935 42.533529 -8.9
-70.856929 42.533949 -8.9
-70.856924 42.534371 -8.9
-70.856915 42.534789 -9.0
-70.856907 42.535212 -9.2
-70.856924 42.535603 -9.0
-70.856940 42.535998 -8.3
-70.856946 42.536128 -7.6
-70.856957 42.536392 -9.3
-70.856976 42.536787 -8.9
-70.856962 42.537181 -8.9
-70.856949 42.537576 -9.2
-70.856940 42.537759 -9.6
-70.856932 42.537970 -9.5
-70.856915 42.538367 -9.2
-70.856915 42.538759 -8.9
-70.856915 42.539151 -7.7
-70.856915 42.539542 -6.6
-70.856912 42.539937 -6.0
-70.856932 42.540331 -5.6
-70.856954 42.540726 -5.1
-70.856976 42.541120 -4.8
-70.857001 42.541517 -4.4
-70.856996 42.541920 -4.2
-70.856987 42.542323 -4.1
-70.856979 42.542726 -4.1
-70.856971 42.543131 -4.1
-70.856943 42.543520 -4.0
-70.856912 42.543909 -3.3
-70.856885 42.544301 -2.6
-70.856854 42.544689 -2.0
-70.856824 42.545081 -1.1
-70.854662 42.540998 -5.4
-70.855268 42.541026 -5.1
-70.855874 42.541053 -4.9
-70.856479 42.541081 -4.9
-70.857087 42.541112 -4.8
-70.857643 42.541120 -4.8
-70.858201 42.541128 -4.6
-70.858760 42.541137 -4.6
-70.859318 42.541145 -4.8
-70.859874 42.541145 -4.9
-70.860429 42.541142 -4.8
-70.860987 42.541139 -4.8
-70.861546 42.541137 -4.6
-70.862087 42.541156 -4.5
-70.862632 42.541178 -4.3
-70.863176 42.541201 -4.2
-70.863724 42.541223 -4.3
-70.864279 42.541231 -6.2
-70.864835 42.541239 -7.7
-70.865393 42.541248 -7.8
-70.865951 42.541256 -7.8
-70.866504 42.541281 -8.1
-70.867060 42.541306 -8.1
-70.867432 42.541326 -8.3
-70.867615 42.541334 -7.2
-70.867876 42.541345 -6.2
-70.868174 42.541362 -6.0
-70.868721 42.541384 -5.4
-70.869271 42.541406 -4.8
-70.869526 42.541417 -4.6
-70.869821 42.541431 -4.8
-70.870371 42.541456 -5.1
-70.870915 42.541464 -4.9
-70.871462 42.541476 -6.2
-70.872010 42.541487 -8.5
-70.872557 42.541501 -8.9
-70.858042 42.529415 -7.8
-70.858075 42.529835 -8.0
-70.858111 42.530254 -8.2
-70.858123 42.530393 -10.8
-70.858148 42.530674 -10.5
-70.858170 42.530954 -10.1
-70.858184 42.531096 -10.8
-70.858204 42.531529 -11.3
-70.858224 42.531963 -7.6
-70.858243 42.532396 -8.3
-70.858265 42.532829 -8.4
-70.858268 42.533246 -8.6
-70.858274 42.533665 -8.6
-70.858276 42.534084 -8.6
-70.858282 42.534503 -8.9
-70.858335 42.534928 -8.9
-70.858390 42.535353 -8.9
-70.858446 42.535778 -8.6
-70.858501 42.536203 -8.4
-70.858493 42.536612 -8.3
-70.858485 42.537020 -8.1
-70.858476 42.537431 -8.1
-70.858465 42.537842 -8.4
-70.858451 42.538253 -8.6
-70.858435 42.538667 -8.7
-70.858418 42.539078 -8.6
-70.858401 42.539492 -7.4
-70.858365 42.539901 -6.2
-70.858326 42.540312 -5.3
-70.858287 42.540723 -5.0
-70.858246 42.541137 -4.7
-70.858224 42.541553 -4.3
-70.858199 42.541970 -3.8
-70.858174 42.542389 -3.5
-70.858149 42.542809 -3.5
-70.858174 42.543223 -3.5
-70.858199 42.543637 -3.2
-70.858224 42.544051 -2.8
-70.858251 42.544467 -1.6
-70.857187 42.545437 -0.5
-70.857226 42.545045 -0.8
-70.857268 42.544653 -1.7
-70.857310 42.544259 -2.7
-70.857351 42.543864 -3.5
-70.857465 42.543456 -3.9
-70.857582 42.543048 -3.9
-70.857699 42.542639 -3.9
-70.857815 42.542231 -3.7
-70.857849 42.541826 -4.0
-70.857882 42.541420 -4.3
-70.857915 42.541014 -4.8
-70.857949 42.540609 -5.1
-70.857982 42.540201 -5.5
-70.858012 42.539787 -6.3
-70.858046 42.539370 -7.3
-70.858079 42.538953 -8.5
-70.858032 42.538545 -8.7
-70.857985 42.538134 -9.1
-70.857937 42.537723 -8.7
-70.857887 42.537312 -8.2
-70.857862 42.536909 -8.4
-70.857854 42.536773 -7.6
-70.857837 42.536503 -9.0
-70.857826 42.536370 -7.9
-70.857810 42.536101 -8.7
-70.857782 42.535695 -8.7
-70.857757 42.535270 -8.6
-70.857732 42.534845 -8.8
-70.857707 42.534420 -8.9
-70.857679 42.533993 -8.6
-70.857665 42.533607 -8.6
-70.857651 42.533221 -8.6
-70.857637 42.532835 -8.5
-70.857621 42.532446 -8.3
-70.857612 42.532257 -10.1
-70.857598 42.532038 -9.8
-70.857575 42.531629 -10.1
-70.857550 42.531221 -10.1
-70.857542 42.531085 -9.7
-70.857525 42.530813 -8.2
-70.857509 42.530410 -8.0
-70.857489 42.530004 -7.7
-70.857473 42.529602 -7.3
-70.857453 42.529196 -7.2
-70.857434 42.528790 -6.7
-70.876468 42.541195 0.4
-70.876476 42.540734 0.3
-70.876482 42.540517 -0.5
-70.876487 42.540270 -3.7
-70.876499 42.539806 -3.0
-70.876510 42.539339 -8.1
-70.876510 42.539017 -7.5
-70.876512 42.538856 -4.7
-70.876512 42.538631 -2.1
-70.876515 42.538373 -1.6
-70.876518 42.537889 -2.5
-70.876524 42.537406 -2.8
-70.876529 42.537187 -2.5
-70.876540 42.536931 -5.6
-70.876557 42.536456 -5.6
-70.876568 42.536139 -8.2
-70.876574 42.535981 -5.9
-70.876582 42.535759 -4.7
-70.876593 42.535503 -5.9
-70.876596 42.535117 -3.4
-70.876601 42.534728 -1.2
-70.876607 42.534342 -0.9
-70.876615 42.533953 -0.8
-70.876107 42.533937 -0.7
-70.876099 42.534278 -0.9
-70.876090 42.534623 -0.9
-70.876082 42.534967 -1.2
-70.876074 42.535312 -3.7
-70.876076 42.535476 -5.2
-70.876079 42.535662 -4.3
-70.876085 42.536014 -4.9
-70.876090 42.536367 -6.7
-70.876099 42.536723 -5.4
-70.876104 42.536956 -5.2
-70.876107 42.537073 -3.6
-70.876110 42.537189 -2.4
-70.876115 42.537423 -2.9
-70.876126 42.537773 -2.7
-70.876137 42.538126 -2.1
-70.876174 42.538462 -1.5
-70.876201 42.538687 -1.8
-70.876212 42.538798 -2.6
-70.876251 42.539134 -7.5
-70.876293 42.539473 -8.1
-70.876315 42.539887 -3.6
-70.876324 42.540026 -2.4
-70.876337 42.540301 -4.2
-70.876360 42.540714 -1.0
-70.876385 42.541131 0.2
-70.888418 42.539048 -4.0
-70.888507 42.538748 -4.0
-70.888596 42.538448 -3.4
-70.888685 42.538145 -2.7
-70.888776 42.537842 -1.0
-70.888882 42.537537 -0.5
-70.888987 42.537231 -0.2
-70.889093 42.536923 -3.0
-70.889201 42.536614 0.2
-70.889624 42.535689 0.2
-70.889765 42.535378 0.3
-70.890515 42.535037 -0.1
-70.890410 42.535353 -0.1
-70.890304 42.535670 -0.1
-70.890196 42.535989 -0.2
-70.890087 42.536309 -0.2
-70.889962 42.536648 -0.2
-70.889835 42.536987 -0.4
-70.889707 42.537328 -0.7
-70.889576 42.537670 -3.6
-70.889443 42.538001 -5.8
-70.889307 42.538334 -6.2
-70.889171 42.538667 -5.5
-70.889032 42.539001 -4.8
-70.888865 42.539298 -3.3
-70.888696 42.539598 -3.8
-70.888524 42.539898 -0.7
-70.888021 42.539406 -3.2
-70.887946 42.539689 -3.5
-70.887865 42.539976 -0.5
-70.889210 42.539739 -1.3
-70.889387 42.539428 -4.2
-70.889565 42.539114 -4.2
-70.889743 42.538801 -4.8
-70.889924 42.538487 -5.5
-70.890046 42.538151 -6.2
-70.890168 42.537812 -5.6
-70.890293 42.537473 -3.0
-70.890418 42.537134 -1.5
-70.890587 42.536803 -0.5
-70.890760 42.536473 -0.4
-70.890932 42.536142 -0.2
-70.891104 42.535809 -0.1
-70.891215 42.535464 -0.1
-70.891329 42.535117 -0.1
-70.891443 42.534773 -0.1
-70.891560 42.534426 0.2
-70.891990 42.533056 0.1
-70.892049 42.532723 0.0
-70.892110 42.532387 -0.2
-70.892171 42.532051 -0.2
-70.892232 42.531714 0.0
-70.892257 42.531378 0.0
-70.892282 42.531042 0.0
-70.892307 42.530706 0.0
-70.892335 42.530367 0.3
-70.891787 42.531201 0.9
-70.891735 42.531517 0.4
-70.891682 42.531837 0.3
-70.891629 42.532156 0.3
-70.891574 42.532478 0.4
-70.892340 42.532851 0.1
-70.892410 42.532578 -0.2
-70.892482 42.532306 -0.4
-70.892554 42.532034 -0.2
-70.892629 42.531759 -0.1
-70.892721 42.531442 -0.1
-70.892815 42.531123 0.1
-70.892910 42.530803 0.2
-70.893004 42.530481 0.2
-70.893124 42.530178 0.2
-70.893246 42.529873 0.2
-70.893365 42.529570 0.2
-70.893487 42.529264 0.4
-70.888779 42.539631 -3.7
-70.888924 42.539314 -4.2
-70.889071 42.538998 -5.1
-70.889218 42.538681 -5.4
-70.889368 42.538364 -6.2
-70.889446 42.538217 -6.5
-70.889537 42.538048 -5.9
-70.889707 42.537731 -4.4
-70.889876 42.537414 -1.3
-70.890049 42.537098 -0.7
-70.890201 42.536773 -0.4
-70.890354 42.536445 -0.4
-70.890507 42.536117 -0.2
-70.890662 42.535789 -0.2
-70.890846 42.535470 -0.2
-70.891029 42.535151 -0.2
-70.891215 42.534831 -0.2
-70.891401 42.534509 0.1
-70.890071 42.535267 0.1
-70.889965 42.535576 -0.1
-70.889860 42.535887 -0.3
-70.889751 42.536198 -0.3
-70.889643 42.536512 -0.3
-70.889537 42.536845 -0.4
-70.889429 42.537178 -0.6
-70.889321 42.537512 -0.9
-70.889212 42.537845 -4.6
-70.889040 42.538167 -6.1
-70.888868 42.538489 -5.7
-70.888693 42.538814 -5.2
-70.888612 42.538964 -4.0
-70.888518 42.539139 -4.8
-70.889435 42.539517 -3.9
-70.889540 42.539237 -4.1
-70.889646 42.538953 -4.5
-70.889754 42.538670 -5.3
-70.889862 42.538387 -5.9
-70.889996 42.538112 -6.3
-70.890129 42.537837 -5.9
-70.890262 42.537562 -3.9
-70.890399 42.537287 -2.4
-70.890562 42.536998 -1.2
-70.890726 42.536709 -0.6
-70.890893 42.536420 -0.5
-70.891060 42.536128 -0.4
-70.891229 42.535848 -0.2
-70.891401 42.535567 -0.2
-70.891574 42.535287 -0.1
-70.891746 42.535003 -0.1
-70.891921 42.534737 -0.1
-70.892099 42.534470 -0.1
-70.892276 42.534203 -0.1
-70.892457 42.533937 0.5
-70.892587 42.533656 -0.4
-70.892721 42.533373 -0.5
-70.892854 42.533089 -0.4
-70.892987 42.532806 -0.4
-70.893162 42.532523 -0.1
-70.893337 42.532237 -0.1
-70.893512 42.531951 -0.1
-70.893690 42.531662 -0.1
-70.893871 42.531364 -0.1
-70.894051 42.531064 0.2
-70.894232 42.530764 0.2
-70.894415 42.530464 0.4
-70.894587 42.530184 0.4
-70.894760 42.529901 0.4
-70.894935 42.529617 0.4
-70.895110 42.529334 0.2
-70.895235 42.529039 0.2
-70.895360 42.528742 0.2
-70.895485 42.528445 0.2
-70.895610 42.528145 -0.2
-70.895718 42.527839 -0.2
-70.895829 42.527531 -0.2
-70.895940 42.527223 -0.2
-70.896051 42.526914 -0.2
-70.896415 42.525989 0.5
-70.896537 42.525681 0.7
-70.888979 42.538670 -5.5
-70.889382 42.538670 -5.5
-70.889787 42.538673 -5.2
-70.890190 42.538676 -4.7
-70.890596 42.538678 -4.1
-70.891012 42.538678 -4.1
-70.891429 42.538676 -3.4
-70.891849 42.538673 -3.1
-70.892268 42.538670 -4.0
-70.892725 42.538667 -3.8
-70.893183 42.538662 -3.7
-70.893641 42.538656 -3.5
-70.894100 42.538651 -3.5
-70.894566 42.538651 -3.8
-70.895033 42.538651 -4.9
-70.895500 42.538648 -5.4
-70.895966 42.538648 -6.1
-70.896433 42.538645 -6.1
-70.898055 42.542387 -5.0
-70.897850 42.542070 -5.3
-70.897641 42.541753 -5.4
-70.897433 42.541437 -5.6
-70.897225 42.541120 -5.5
-70.897072 42.540784 -5.3
-70.896916 42.540445 -5.3
-70.896763 42.540109 -5.2
-70.896608 42.539770 -5.2
-70.896416 42.539437 -5.5
-70.896225 42.539103 -5.9
-70.896033 42.538767 -6.2
-70.895841 42.538431 -6.2
-70.895733 42.538287 -5.0
-70.895608 42.538117 -5.2
-70.895375 42.537801 -1.3
-70.857262 42.544331 -2.5
-70.857290 42.543948 -3.3
-70.857321 42.543564 -3.7
-70.857349 42.543181 -4.1
-70.857379 42.542798 -4.1
-70.857354 42.542420 -3.9
-70.857326 42.542039 -3.9
-70.857299 42.541659 -4.2
-70.857268 42.541278 -4.7
-70.857226 42.540914 -5.0
-70.857185 42.540548 -5.3
-70.857143 42.540181 -5.6
-70.857099 42.539814 -6.2
-70.857085 42.539431 -7.1
-70.857071 42.539048 -8.2
-70.857057 42.538664 -9.0
-70.857040 42.538278 -9.2
-70.857065 42.537898 -9.5
-70.857093 42.537514 -8.9
-70.857121 42.537131 -8.6
-70.857151 42.536748 -8.7
-70.857199 42.536373 -8.9
-70.857246 42.535995 -8.9
-70.857296 42.535617 -8.7
-70.857346 42.535239 -8.9
-70.857390 42.534862 -8.9
-70.857435 42.534484 -8.7
-70.857479 42.534107 -8.6
-70.857526 42.533727 -8.6
-70.857535 42.533360 -8.6
-70.857546 42.532990 -8.5
-70.857557 42.532621 -8.3
-70.857562 42.532446 -8.5
-70.857568 42.532249 -10.2
-70.857564 42.531888 -10.1
-70.857559 42.531527 -10.1
-70.857553 42.531165 -9.8
-70.857550 42.530996 -11.0
-70.857548 42.530802 -8.0
-70.857475 42.530457 -8.0
-70.857403 42.530110 -7.7
-70.857331 42.529763 -7.6
-70.857256 42.529415 -7.2
-70.857289 42.529046 -6.9
-70.857323 42.528674 -6.6
-70.857359 42.528304 -6.2
-70.857395 42.527932 -6.2
-70.857650 42.527654 -6.0
-70.857659 42.528038 -6.2
-70.857667 42.528421 -6.5
-70.857675 42.528807 -6.8
-70.857686 42.529193 -7.1
-70.857711 42.529579 -7.8
-70.857736 42.529968 -7.8
-70.857761 42.530357 -8.1
-70.857773 42.530540 -8.1
-70.857786 42.530749 -10.5
-70.857823 42.531140 -11.1
-70.857839 42.531324 -9.0
-70.857861 42.531532 -10.7
-70.857878 42.531718 -10.0
-70.857899 42.531927 -11.0
-70.857915 42.532110 -8.2
-70.857937 42.532321 -8.2
-70.857957 42.532715 -8.5
-70.857976 42.533110 -8.5
-70.857996 42.533504 -8.5
-70.858018 42.533902 -8.7
-70.858021 42.534284 -8.9
-70.858026 42.534670 -8.8
-70.858032 42.535056 -8.8
-70.858040 42.535445 -8.8
-70.858037 42.535826 -8.7
-70.858035 42.536206 -8.5
-70.858032 42.536587 -8.5
-70.858026 42.536970 -8.2
-70.858040 42.537328 -8.2
-70.858054 42.537689 -8.4
-70.858071 42.538051 -9.1
-70.858087 42.538414 -8.7
-70.858093 42.538770 -8.7
-70.858101 42.539126 -8.2
-70.858110 42.539484 -7.0
-70.858118 42.539842 -6.1
-70.858143 42.540195 -5.5
-70.858171 42.540551 -5.0
-70.858199 42.540906 -4.7
-70.858229 42.541262 -4.4
-70.858207 42.541628 -3.9
-70.858185 42.541995 -3.6
-70.858162 42.542362 -3.5
-70.858137 42.542731 -3.5
-70.858099 42.543098 -3.6
-70.858060 42.543467 -3.3
-70.858021 42.543837 -3.0
-70.857979 42.544206 -2.3
-70.857507 42.544270 -2.6
-70.857499 42.543928 -3.2
-70.857490 42.543587 -3.6
-70.857482 42.543242 -3.9
-70.857474 42.542898 -3.7
-70.857476 42.542564 -3.9
-70.857482 42.542228 -3.7
-70.857487 42.541892 -4.1
-70.857496 42.541553 -4.4
-70.857496 42.541220 -4.7
-70.857499 42.540884 -5.0
-70.857501 42.540548 -5.3
-70.857504 42.540212 -5.6
-70.857512 42.539862 -6.2
-70.857524 42.539512 -6.9
-70.857535 42.539162 -8.0
-70.857549 42.538809 -8.9
-70.857579 42.538451 -8.9
-70.857610 42.538092 -9.3
-70.857640 42.537734 -8.6
-70.857674 42.537376 -8.5
-70.857707 42.537051 -8.3
-70.857740 42.536726 -8.2
-70.857774 42.536401 -8.6
-70.857807 42.536073 -8.6
-70.857826 42.535728 -8.9
-70.857849 42.535381 -8.9
-70.857868 42.535037 -8.9
-70.857890 42.534689 -8.9
-70.858910 42.543709 -2.9
-70.858943 42.543359 -3.0
-70.858976 42.543006 -3.0
-70.859010 42.542653 -3.3
-70.859043 42.542298 -3.8
-70.859043 42.541928 -4.0
-70.859046 42.541556 -4.3
-70.859049 42.541187 -4.6
-70.859054 42.540814 -4.9
-70.859051 42.540431 -5.2
-70.859046 42.540045 -5.8
-70.859043 42.539659 -7.0
-70.859037 42.539273 -8.3
-70.859037 42.538892 -8.4
-70.859035 42.538512 -8.4
-70.859032 42.538131 -8.3
-70.859026 42.537748 -8.0
-70.859015 42.537348 -8.0
-70.859001 42.536948 -8.0
-70.858987 42.536548 -8.0
-70.858974 42.536148 -8.3
-70.859004 42.535764 -8.4
-70.859035 42.535381 -8.3
-70.859065 42.534998 -8.6
-70.859099 42.534612 -8.6
-70.859118 42.534262 -8.1
-70.859126 42.534142 -7.7
-70.859140 42.533909 -8.6
-70.859160 42.533557 -8.3
-70.859182 42.533204 -8.3
-70.859168 42.532818 -8.3
-70.859151 42.532432 -8.3
-70.859140 42.532174 -6.6
-70.859135 42.532046 -6.7
-70.859129 42.531915 -7.7
-70.859118 42.531657 -7.8
-70.859115 42.531332 -8.0
-70.859112 42.531115 -7.0
-70.859112 42.531007 -7.5
-70.859110 42.530857 -6.9
-70.859110 42.530682 -10.9
-70.859104 42.530357 -10.6
-70.859079 42.529996 -10.3
-70.859050 42.529632 -10.3
-70.859036 42.529463 -8.0
-70.859023 42.529268 -8.0
-70.858992 42.528904 -8.0
-70.858978 42.528857 -7.8
-70.858570 42.527507 -7.2
-70.858578 42.527832 -7.3
-70.858586 42.528160 -7.5
-70.858595 42.528488 -7.7
-70.858603 42.528815 -7.8
-70.858611 42.529168 -7.8
-70.858620 42.529521 -8.0
-70.858628 42.529757 -7.7
-70.858631 42.529874 -8.9
-70.858634 42.529993 -7.8
-70.858634 42.529993 -10.8
-70.858642 42.530229 -10.6
-70.858657 42.530590 -10.0
-70.858674 42.530952 -10.9
-70.858690 42.531313 -9.3
-70.858707 42.531677 -8.0
-70.858712 42.532035 -8.0
-70.858721 42.532393 -8.0
-70.858729 42.532752 -8.3
-70.858737 42.533113 -8.4
-70.858737 42.533477 -8.4
-70.858737 42.533840 -8.6
-70.858737 42.534206 -8.4
-70.858735 42.534573 -8.9
-70.858712 42.534909 -8.9
-70.858687 42.535245 -8.9
-70.858662 42.535581 -8.7
-70.858637 42.535920 -8.4
-70.858629 42.536078 -7.9
-70.858618 42.536259 -8.1
-70.858599 42.536601 -8.1
-70.858579 42.536942 -8.0
-70.858557 42.537284 -8.0
-70.858587 42.537623 -8.0
-70.858618 42.537964 -8.4
-70.858651 42.538306 -8.3
-70.858685 42.538648 -8.6
-70.858676 42.538984 -8.6
-70.858668 42.539323 -7.9
-70.858657 42.539659 -6.7
-70.858646 42.539998 -5.8
-70.858635 42.540331 -5.3
-70.858621 42.540664 -5.0
-70.858607 42.541001 -4.5
-70.858593 42.541337 -4.2
-70.858568 42.541687 -4.1
-70.858540 42.542037 -3.6
-70.858512 42.542389 -3.3
-70.858485 42.542742 -3.3
-70.859612 42.544076 -2.0
-70.859593 42.543695 -2.6
-70.859574 42.543312 -2.7
-70.859554 42.542928 -3.2
-70.859532 42.542545 -3.9
-70.859557 42.542153 -4.2
-70.859585 42.541759 -4.2
-70.859612 42.541364 -4.6
-70.859640 42.540967 -4.9
-70.859624 42.540581 -5.1
-70.859607 42.540195 -5.7
-70.859590 42.539809 -6.6
-70.859571 42.539420 -8.1
-70.859562 42.539028 -8.4
-70.859554 42.538634 -8.3
-70.859546 42.538239 -8.0
-70.859535 42.537842 -8.1
-70.859524 42.537445 -8.0
-70.859510 42.537048 -8.0
-70.859499 42.536648 -8.0
-70.859485 42.536248 -8.1
-70.859457 42.535842 -8.4
-70.859426 42.535434 -8.4
-70.859399 42.535026 -8.4
-70.859368 42.534617 -8.4
-70.859349 42.534228 -8.1
-70.859340 42.534098 -7.7
-70.859326 42.533837 -8.7
-70.859307 42.533446 -8.1
-70.859285 42.533054 -8.1
-70.859299 42.532671 -8.3
-70.859315 42.532285 -8.1
-70.859321 42.532154 -7.4
-70.859332 42.531899 -8.0
-70.859349 42.531510 -7.8
-70.859329 42.531113 -7.8
-70.859318 42.530927 -7.2
-70.859307 42.530715 -7.2
-70.859296 42.530529 -11.1
-70.859285 42.530315 -11.1
-70.859260 42.529915 -11.4
-70.859279 42.529788 -9.9
-70.859317 42.529532 -10.2
-70.859375 42.529149 -10.2
-70.859395 42.529021 -8.1
-70.859434 42.528765 -8.1
-70.859492 42.528382 -8.1
-70.860499 42.528779 -10.5
-70.860485 42.529171 -10.3
-70.860468 42.529565 -10.3
-70.860462 42.529699 -7.8
-70.860451 42.529960 -7.6
-70.860435 42.530357 -7.5
-70.860432 42.530749 -7.3
-70.860426 42.531140 -7.2
-70.860421 42.531532 -7.5
-70.860418 42.531713 -5.6
-70.860412 42.531924 -5.3
-70.860407 42.532104 -5.0
-70.860399 42.532313 -5.6
-70.860393 42.532496 -5.8
-70.860385 42.532704 -7.2
-70.860371 42.533096 -7.2
-70.860354 42.533488 -7.2
-70.860354 42.533614 -6.2
-70.860351 42.533876 -6.4
-70.860351 42.534006 -8.1
-70.860349 42.534267 -8.1
-70.860346 42.534659 -8.1
-70.860340 42.535051 -8.2
-70.860332 42.535431 -8.2
-70.860324 42.535812 -8.1
-70.860315 42.536192 -8.1
-70.860304 42.536576 -7.8
-70.860285 42.536956 -7.8
-70.860262 42.537337 -7.8
-70.860240 42.537720 -7.8
-70.860218 42.538103 -8.5
-70.860204 42.538278 -7.9
-70.860185 42.538481 -8.4
-70.860151 42.538862 -8.4
-70.860118 42.539242 -8.4
-70.860085 42.539623 -8.1
-70.860062 42.539998 -6.1
-70.860037 42.540373 -5.2
-70.860012 42.540751 -5.0
-70.859987 42.541128 -4.7
-70.859979 42.541514 -4.7
-70.859971 42.541901 -4.4
-70.859962 42.542287 -4.1
-70.859954 42.542676 -3.7
-70.859990 42.543042 -3.3
-70.860029 42.543409 -2.5
-70.860065 42.543776 -2.2
-70.860104 42.544142 -1.7
-70.875437 42.533834 -0.3
-70.875479 42.534156 -0.6
-70.875524 42.534478 -0.8
-70.875568 42.534803 -1.3
-70.875615 42.535128 -1.1
-70.875632 42.535473 -1.1
-70.875649 42.535820 -2.5
-70.875665 42.536167 -5.1
-70.875682 42.536517 -6.7
-70.875701 42.536856 -6.0
-70.875724 42.537195 -5.4
-70.875743 42.537537 -2.7
-70.875765 42.537876 -2.5
-70.875787 42.538217 -2.2
-70.875765 42.538559 -2.8
-70.875743 42.538901 -1.7
-70.875721 42.539245 -6.4
-70.875696 42.539589 -8.1
-70.875662 42.539928 -6.9
-70.875646 42.540087 -3.8
-70.875626 42.540267 -5.1
-70.875590 42.540609 -0.6
-70.875554 42.540951 -0.5
-70.875601 42.541306 0.2
-70.875701 42.542020 -0.2
-70.875943 42.541442 0.2
-70.875996 42.540831 -0.2
-70.876024 42.540526 -4.0
-70.876051 42.540217 -4.0
-70.876054 42.540053 -3.3
-70.876060 42.539864 -6.9
-70.876068 42.539509 -7.9
-70.876076 42.539153 -5.7
-70.876087 42.538798 -1.7
-70.875151 42.533828 -0.2
-70.875154 42.534156 -0.5
-70.875157 42.534487 -0.6
-70.875160 42.534817 -0.8
-70.875165 42.535151 -0.8
-70.875179 42.535517 -0.8
-70.875193 42.535884 0.8
-70.875207 42.536253 -6.0
-70.875224 42.536623 -7.0
-70.875224 42.536978 -6.9
-70.875224 42.537334 -6.0
-70.875226 42.537692 -3.4
-70.875226 42.537859 -3.0
-70.875229 42.538051 -3.3
-70.875240 42.538417 -4.3
-70.875254 42.538784 -4.2
-70.875265 42.539151 -5.1
-70.875279 42.539520 -7.2
-70.875287 42.539884 -7.9
-70.875299 42.540248 -5.4
-70.875310 42.540612 -4.0
-70.875312 42.540734 -1.2
-70.875321 42.540978 -0.6
-70.875324 42.541317 0.2
-70.875326 42.541659 -0.2
-70.875332 42.541998 -0.5
-70.875335 42.542339 -0.5
-70.875340 42.542681 -0.5
-70.874851 42.543642 0.1
-70.874876 42.543348 0.1
-70.874901 42.543053 -0.4
-70.874926 42.542759 -0.5
-70.874954 42.542462 -0.4
-70.874935 42.542120 -0.5
-70.874912 42.541778 -0.2
-70.874890 42.541437 -0.2
-70.874868 42.541095 -1.8
-70.874843 42.540753 -0.8
-70.874818 42.540409 -7.8
-70.874793 42.540064 -8.4
-70.874765 42.539717 -6.6
-70.874732 42.539401 -6.5
-70.874696 42.539084 -6.1
-70.874660 42.538767 -5.8
-70.874621 42.538448 -4.5
-70.874624 42.538120 -6.2
-70.874629 42.537789 -6.8
-70.874635 42.537459 -6.9
-70.874640 42.537128 -7.2
-70.874657 42.536795 -5.2
-70.874665 42.536639 -3.9
-70.874676 42.536462 -4.4
-70.874696 42.536126 -1.2
-70.874715 42.535789 -0.4
-70.874699 42.535456 -0.5
-70.874682 42.535123 -0.1
-70.874662 42.534789 -0.2
-70.874643 42.534456 -0.2
-70.874576 42.534156 -0.1
-70.874507 42.533856 0.2
-70.874271 42.534037 0.2
-70.874274 42.534389 0.0
-70.874279 42.534745 0.0
-70.874285 42.535101 0.0
-70.874290 42.535459 0.0
-70.874299 42.535826 0.0
-70.874307 42.536192 -0.1
-70.874315 42.536559 -1.9
-70.874326 42.536926 -3.2
-70.874315 42.537278 -5.5
-70.874304 42.537631 -7.3
-70.874293 42.537984 -6.8
-70.874279 42.538339 -6.4
-70.874279 42.538709 -6.5
-70.874282 42.539078 -6.7
-70.874285 42.539448 -7.4
-70.874287 42.539820 -7.9
-70.874282 42.540187 -8.5
-70.874276 42.540556 -8.2
-70.874271 42.540926 -5.7
-70.874262 42.541298 -1.2
-70.874237 42.541645 -0.7
-70.874210 42.541995 -0.7
-70.874182 42.542345 -0.3
-70.874154 42.542695 -0.7
-70.874154 42.543028 -0.6
-70.874154 42.543362 -0.6
-70.874157 42.543695 -0.6
-70.874160 42.544031 0.0
-70.873724 42.544412 -0.2
-70.873712 42.544109 -0.3
-70.873699 42.543803 -0.6
-70.873687 42.543498 -0.6
-70.873674 42.543189 -0.6
-70.873693 42.542878 -0.8
-70.873715 42.542564 -0.5
-70.873735 42.542251 -0.8
-70.873757 42.541934 -1.2
-70.873774 42.541637 -1.3
-70.873793 42.541339 -3.0
-70.873812 42.541039 -7.5
-70.873832 42.540739 -9.2
-70.873826 42.540451 -8.9
-70.873821 42.540159 -8.7
-70.873815 42.539867 -8.1
-70.873807 42.539576 -7.7
-70.873826 42.539262 -7.0
-70.873846 42.538945 -6.3
-70.873868 42.538631 -6.3
-70.873887 42.538314 -4.8
-70.873910 42.537998 -5.9
-70.873921 42.537673 -5.3
-70.873935 42.537348 -4.1
-70.873943 42.537195 -2.8
-70.873949 42.537023 -2.8
-70.873965 42.536695 -0.5
-70.873946 42.536378 0.3
-70.873924 42.536062 0.6
-70.873901 42.535742 0.9
-70.873876 42.535423 1.2
-70.873454 42.536726 -0.2
-70.873449 42.537084 -0.5
-70.873443 42.537442 -0.8
-70.873435 42.537801 -3.3
-70.873426 42.538162 -4.8
-70.873426 42.538512 -4.3
-70.873426 42.538864 -7.5
-70.873426 42.539217 -3.0
-70.873424 42.539570 0.2
-70.873371 42.539945 -5.5
-70.873315 42.540323 -7.8
-70.873260 42.540701 -11.3
-70.873201 42.541078 -10.5
-70.873190 42.541451 -6.9
-70.873176 42.541826 -3.3
-70.873162 42.542201 -2.0
-70.873146 42.542576 -0.8
-70.873171 42.542914 -0.5
-70.873196 42.543253 -0.8
-70.873221 42.543595 -0.8
-70.873249 42.543937 -0.8
-70.873312 42.544284 -0.5
-70.891668 42.532678 0.1
-70.891746 42.532345 0.1
-70.891824 42.532012 0.1
-70.891901 42.531678 0.3
-70.891982 42.531345 0.6
-70.892015 42.531153 0.7
-70.892051 42.530959 1.2
-70.892987 42.529606 0.3
-70.892871 42.529931 0.0
-70.892754 42.530259 0.0
-70.892637 42.530587 0.0
-70.892521 42.530917 0.0
-70.892462 42.531278 -0.2
-70.892404 42.531639 -0.2
-70.892346 42.532001 -0.3
-70.892287 42.532364 -0.3
-70.892271 42.532726 -0.5
-70.892251 42.533089 -0.3
-70.892235 42.533451 0.3
-70.892215 42.533814 1.0
-70.892196 42.534178 0.0
-70.892421 42.534328 0.0
-70.892515 42.534023 0.0
-70.892568 42.533859 0.6
-70.892612 42.533717 0.0
-70.892710 42.533409 -0.6
-70.892810 42.533101 -0.5
-70.892901 42.532767 -0.6
-70.892993 42.532434 -0.5
-70.893087 42.532101 -0.3
-70.893182 42.531767 -0.2
-70.893212 42.531431 -0.5
-70.893243 42.531092 0.0
-70.893274 42.530753 0.1
-70.893307 42.530414 0.1
-70.893335 42.530098 0.3
-70.893362 42.529778 0.1
-70.893390 42.529459 0.3
-70.893421 42.529137 0.3
-70.894101 42.528389 0.4
-70.894004 42.528709 0.3
-70.893907 42.529028 0.3
-70.893810 42.529348 0.3
-70.893710 42.529670 0.3
-70.893618 42.530003 0.1
-70.893524 42.530337 0.3
-70.893429 42.530670 0.1
-70.893332 42.531006 0.0
-70.893279 42.531356 -0.5
-70.893224 42.531706 -0.2
-70.893168 42.532056 -0.2
-70.893110 42.532406 -0.5
-70.893560 42.532531 0.1
-70.893593 42.532384 0.6
-70.893632 42.532217 0.3
-70.893704 42.531901 0.0
-70.893776 42.531587 -0.2
-70.893849 42.531270 0.0
-70.893924 42.530953 0.1
-70.894004 42.530631 -0.3
-70.894085 42.530309 -0.3
-70.894168 42.529987 -0.3
-70.894251 42.529662 -0.3
-70.894304 42.529376 -0.2
-70.894357 42.529087 0.0
-70.894410 42.528798 0.3
-70.894465 42.528509 0.4
-70.894535 42.528206 0.4
-70.894607 42.527903 0.4
-70.894676 42.527601 0.7
-70.894749 42.527295 0.9
-70.895312 42.526514 0.6
-70.895237 42.526851 0.7
-70.895160 42.527189 0.6
-70.895082 42.527528 0.6
-70.895001 42.527867 0.4
-70.894957 42.528206 0.4
-70.894912 42.528548 0.3
-70.894868 42.528889 -0.2
-70.894821 42.529231 0.0
-70.894762 42.529548 0.3
-70.894704 42.529867 0.3
-70.894646 42.530187 0.4
-70.894585 42.530509 0.3
-70.894521 42.530859 0.3
-70.894457 42.531209 0.0
-70.894393 42.531559 0.1
-70.894326 42.531909 0.3
-70.894893 42.531767 0.4
-70.894926 42.531423 0.2
-70.894962 42.531078 0.2
-70.894996 42.530734 0.1
-70.895032 42.530389 0.5
-70.895068 42.530042 0.5
-70.895124 42.529701 0.5
-70.895182 42.529359 0.5
-70.895240 42.529017 0.4
-70.895299 42.528673 0.2
-70.895376 42.528334 -0.2
-70.895454 42.527992 0.1
-70.895532 42.527651 0.4
-70.895612 42.527309 0.5
-70.895701 42.526976 0.5
-70.895790 42.526639 0.5
-70.895879 42.526303 0.5
-70.895971 42.525964 0.7
-70.896554 42.525703 0.4
-70.896521 42.525856 -0.2
-70.896479 42.526028 -0.1
-70.896440 42.526203 0.2
-70.896329 42.526684 -0.2
-70.896179 42.527345 0.3
-70.896107 42.527678 0.2
-70.896032 42.528012 -0.2
-70.895957 42.528345 0.2
-70.895662 42.529337 0.2
-70.895562 42.529670 0.2
-70.895554 42.529981 0.2
-70.895543 42.530295 0.2
-70.895518 42.530923 0.2
-70.895837 42.531284 0.3
-70.895907 42.530970 0.3
-70.895979 42.530653 0.3
-70.896051 42.530337 0.3
-70.896124 42.530020 0.3
-70.896185 42.529681 0.2
-70.896249 42.529339 0.5
-70.896312 42.528998 0.5
-70.896379 42.528656 0.3
-70.896429 42.528323 0.5
-70.896479 42.527989 0.5
-70.896532 42.527653 0.3
-70.896585 42.527317 0.5
-70.896640 42.526976 0.6
-70.896696 42.526634 0.8
-70.896754 42.526292 0.8
-70.896812 42.525948 0.6
-70.896879 42.525626 0.3
-70.896949 42.525301 0.8
-70.897874 42.524895 0.7
-70.897449 42.525073 0.5
-70.897024 42.525253 0.5
-70.896596 42.525434 0.5
-70.896168 42.525617 0.7
-70.898565 42.525053 0.0
-70.898157 42.525245 0.3
-70.897749 42.525439 -0.1
-70.897337 42.525634 -0.1
-70.896926 42.525828 0.5
-70.896587 42.526053 0.3
-70.896249 42.526281 0.5
-70.895910 42.526509 0.5
-70.895568 42.526737 0.5
-70.896835 42.527917 0.4
-70.896821 42.528259 0.4
-70.896804 42.528601 0.4
-70.896787 42.528942 0.0
-70.896771 42.529287 0.0
-70.896746 42.529637 0.0
-70.896718 42.529987 0.3
-70.896690 42.530339 0.7
-70.896676 42.530503 0.9
-70.896660 42.530692 0.6
-70.896593 42.531042 0.6
-70.896524 42.531398 0.6
-70.897015 42.531512 0.5
-70.896715 42.531281 0.5
-70.896412 42.531048 0.5
-70.896110 42.530814 0.5
-70.893451 42.532878 -0.1
-70.893276 42.533228 -0.2
-70.893099 42.533581 -0.6
-70.892921 42.533934 -0.8
-70.892740 42.534289 -0.2
-70.892571 42.534656 -0.2
-70.892399 42.535023 -0.2
-70.892226 42.535389 -0.3
-70.892051 42.535759 -0.5
-70.891826 42.536092 -0.6
-70.891599 42.536426 -0.8
-70.891476 42.536603 -2.3
-70.891371 42.536759 -1.4
-70.891143 42.537092 -0.5
-70.890993 42.537456 -2.7
-70.890843 42.537823 -5.2
-70.890693 42.538189 -5.9
-70.890543 42.538556 -5.2
-70.890365 42.538901 -4.5
-70.890187 42.539248 -4.0
-70.890007 42.539598 -3.9
-70.860601 42.543742 -1.8
-70.860582 42.543406 -2.5
-70.860562 42.543070 -3.4
-70.860543 42.542734 -3.9
-70.860521 42.542395 -4.3
-70.860507 42.542042 -4.6
-70.860490 42.541687 -4.6
-70.860474 42.541334 -4.6
-70.860457 42.540978 -4.9
-70.860443 42.540634 -5.1
-70.860429 42.540287 -5.4
-70.860415 42.539942 -7.2
-70.860399 42.539595 -8.2
-70.860443 42.539228 -8.5
-70.860490 42.538859 -8.2
-70.860537 42.538489 -8.2
-70.860587 42.538117 -8.4
-70.860615 42.537767 -7.8
-70.860646 42.537417 -7.8
-70.860676 42.537067 -7.8
-70.860710 42.536717 -7.8
-70.860726 42.536351 -8.0
-70.860743 42.535984 -8.0
-70.860760 42.535617 -8.1
-70.860779 42.535251 -8.1
-70.860779 42.534892 -8.1
-70.860779 42.534534 -8.0
-70.860782 42.534176 -7.8
-70.860785 42.533814 -7.8
-70.860779 42.533656 -7.8
-70.860771 42.533470 -6.5
-70.860762 42.533310 -6.2
-70.860754 42.533127 -7.0
-70.860737 42.532782 -7.1
-70.860721 42.532438 -6.4
-70.860704 42.532093 -5.6
-70.860687 42.531746 -6.1
-70.860682 42.531402 -7.2
-70.860676 42.531054 -7.2
-70.860671 42.530710 -7.3
-70.860662 42.530363 -7.9
-70.860687 42.530215 -7.7
-70.860715 42.530046 -7.7
-70.860771 42.529729 -7.7
-70.860799 42.529579 -7.7
-70.860826 42.529410 -8.5
-70.860854 42.529263 -10.6
-70.860885 42.529090 -10.5
-70.860079 42.529852 -10.3
-70.860079 42.530024 -7.8
-70.860076 42.530221 -7.7
-70.860074 42.530593 -7.7
-70.860071 42.530963 -7.5
-70.860065 42.531335 -7.5
-70.860029 42.531702 -7.7
-70.859990 42.532068 -7.8
-70.859979 42.532193 -7.2
-70.859954 42.532438 -7.0
-70.859915 42.532807 -7.8
-70.859882 42.533171 -7.8
-70.859846 42.533535 -6.7
-70.859810 42.533898 -8.0
-70.859771 42.534264 -8.1
-70.859771 42.534614 -8.4
-70.859771 42.534967 -8.4
-70.859768 42.535320 -8.4
-70.859765 42.535676 -8.4
-70.859762 42.536031 -8.1
-70.859757 42.536387 -8.0
-70.859751 42.536742 -8.0
-70.859743 42.537101 -8.0
-70.859724 42.537473 -8.0
-70.859701 42.537845 -8.3
-70.859679 42.538217 -8.0
-70.859654 42.538592 -8.0
-70.859710 42.538901 -8.3
-70.859768 42.539212 -8.3
-70.859826 42.539523 -8.0
-70.859885 42.539837 -6.5
-70.859829 42.540212 -5.4
-70.859774 42.540587 -5.3
-70.859715 42.540962 -4.8
-70.859657 42.541337 -4.7
-70.861160 42.543862 -1.5
-70.861176 42.543517 -2.4
-70.861196 42.543170 -3.1
-70.861215 42.542823 -3.7
-70.861235 42.542473 -3.9
-70.861218 42.542101 -4.2
-70.861201 42.541726 -4.3
-70.861185 42.541351 -4.5
-70.861168 42.540976 -4.7
-70.861124 42.540592 -5.2
-70.861079 42.540206 -6.7
-70.861035 42.539820 -8.4
-70.860987 42.539434 -8.6
-70.861015 42.539064 -8.2
-70.861046 42.538692 -8.2
-70.861074 42.538320 -8.2
-70.861104 42.537945 -7.7
-70.861132 42.537570 -7.7
-70.861162 42.537195 -7.9
-70.861193 42.536820 -7.9
-70.861224 42.536442 -7.9
-70.861229 42.536067 -8.0
-70.861235 42.535692 -8.0
-70.861240 42.535317 -8.2
-70.861249 42.534942 -8.2
-70.861221 42.534567 -8.0
-70.861207 42.534367 -7.3
-70.861193 42.534192 -7.7
-70.861165 42.533817 -7.7
-70.861135 42.533439 -7.6
-70.861165 42.533077 -7.1
-70.861199 42.532713 -6.8
-70.861232 42.532349 -6.7
-70.861265 42.531982 -6.1
-70.861276 42.531863 -6.1
-70.861287 42.531743 -4.4
-70.861301 42.531624 -6.4
-70.861337 42.531263 -6.7
-70.861374 42.530902 -7.0
-70.861412 42.530538 -7.3
-70.861390 42.530188 -7.3
-70.861365 42.529838 -7.5
-70.861343 42.529488 -7.8
-70.861318 42.529138 -8.0
-70.861301 42.528904 -8.3
-70.861293 42.528788 -10.0
-70.860087 42.528760 -10.8
-70.860001 42.529138 -10.5
-70.859912 42.529518 -10.2
-70.859826 42.529896 -9.9
-70.859796 42.530024 -9.6
-70.859768 42.530149 -11.1
-70.859737 42.530277 -10.8
-70.859732 42.530477 -7.7
-70.859729 42.530654 -7.5
-70.859724 42.530829 -6.8
-70.859718 42.531032 -7.8
-70.859707 42.531410 -7.8
-70.859696 42.531790 -7.8
-70.859712 42.532163 -8.1
-70.859732 42.532535 -8.0
-70.859751 42.532910 -7.8
-70.859771 42.533285 -7.8
-70.859762 42.533485 -6.6
-70.859754 42.533660 -6.9
-70.859737 42.534037 -7.8
-70.859718 42.534414 -8.2
-70.859699 42.534795 -8.5
-70.861612 42.528443 -10.0
-70.861599 42.528649 -8.1
-70.861585 42.528832 -8.0
-70.861554 42.529221 -7.8
-70.861524 42.529613 -7.7
-70.861493 42.530004 -7.3
-70.861493 42.530396 -7.2
-70.861493 42.530790 -7.0
-70.861490 42.531185 -6.7
-70.861487 42.531579 -6.6
-70.861512 42.531952 -6.3
-70.861537 42.532327 -6.7
-70.861565 42.532702 -6.7
-70.861593 42.533077 -7.0
-70.861610 42.533459 -7.2
-70.861629 42.533842 -7.3
-70.861649 42.534226 -7.3
-70.861657 42.534353 -6.9
-70.861668 42.534609 -8.0
-70.861690 42.534995 -8.1
-70.861657 42.535370 -8.1
-70.861624 42.535748 -8.0
-70.861590 42.536126 -8.0
-70.861554 42.536506 -7.8
-70.861496 42.536878 -7.7
-70.861437 42.537251 -7.7
-70.861376 42.537623 -7.7
-70.861318 42.537995 -7.7
-70.861257 42.538370 -8.0
-70.861593 42.543489 -2.5
-70.861593 42.543112 -3.1
-70.861590 42.542731 -3.6
-70.861587 42.542351 -3.9
-70.861582 42.541967 -4.1
-70.861576 42.541587 -4.2
-70.861571 42.541206 -4.4
-70.861565 42.540823 -4.8
-70.861557 42.540439 -6.2
-70.861568 42.540045 -8.7
-70.861582 42.539648 -8.9
-70.861596 42.539251 -8.0
-70.861612 42.538853 -8.5
-70.861624 42.538456 -7.7
-70.861637 42.538056 -7.7
-70.861649 42.537656 -7.6
-70.861662 42.537256 -7.6
-70.898154 42.524834 0.8
-70.897712 42.525114 0.8
-70.897271 42.525395 0.7
-70.896826 42.525678 0.2
-70.898296 42.525253 0.9
-70.897876 42.525473 0.7
-70.897457 42.525692 0.9
-70.897037 42.525912 0.7
-70.896615 42.526134 0.7
-70.897018 42.528753 0.4
-70.897057 42.528906 0.6
-70.897093 42.529039 0.4
-70.897168 42.529328 0.4
-70.897246 42.529617 0.6
-70.897324 42.529909 0.8
-70.895985 42.531428 0.6
-70.895649 42.531598 0.8
-70.895310 42.531770 0.9
-70.894971 42.531939 0.6
-70.894632 42.532112 0.4
-70.894254 42.532309 0.4
-70.893874 42.532506 0.9
-70.893493 42.532706 0.0
-70.893374 42.533337 -0.4
-70.893218 42.533642 -0.7
-70.893062 42.533951 -0.7
-70.892907 42.534259 -0.4
-70.892749 42.534567 -0.3
-70.892621 42.534873 -0.1
-70.892490 42.535178 -0.3
-70.892360 42.535484 -0.3
-70.892226 42.535792 -0.6
-70.892071 42.536139 -0.7
-70.891915 42.536487 -0.7
-70.891862 42.536603 -2.3
-70.891757 42.536834 -0.5
-70.891599 42.537184 -0.4
-70.891429 42.537501 -0.8
-70.891260 42.537820 -5.5
-70.891090 42.538139 -5.8
-70.890918 42.538462 -4.8
-70.890801 42.538795 -3.9
-70.890682 42.539131 -1.5
-70.890562 42.539467 -0.8
-70.890443 42.539803 -0.5
-70.890404 42.539917 -0.7
-70.890324 42.540142 -0.1
-70.890471 42.540406 -0.2
-70.890649 42.540114 -0.2
-70.890735 42.539978 -0.5
-70.890829 42.539823 -0.4
-70.891010 42.539531 -0.8
-70.891193 42.539239 -1.0
-70.891351 42.538931 -2.1
-70.891510 42.538620 -3.6
-70.891668 42.538309 -5.5
-70.891826 42.537995 -5.3
-70.891960 42.537681 -3.6
-70.892093 42.537367 -0.5
-70.892226 42.537051 -0.2
-70.892315 42.536839 0.4
-70.892362 42.536734 -0.2
-70.894035 42.533126 0.5
-70.893924 42.533431 0.2
-70.893810 42.533737 -0.2
-70.893696 42.534045 -0.4
-70.893643 42.534189 -0.5
-70.893582 42.534353 -0.9
-70.893432 42.534673 -0.5
-70.893282 42.534995 -0.4
-70.893132 42.535317 -0.4
-70.892979 42.535639 -0.4
-70.892854 42.535920 -0.4
-70.892729 42.536201 -0.9
-70.892671 42.536334 -1.2
-70.892604 42.536484 -0.2
-70.892562 42.536578 0.5
-70.892476 42.536767 -0.1
-70.893357 42.536128 -0.9
-70.893379 42.536017 -0.6
-70.893426 42.535795 -1.3
-70.893499 42.535462 -1.3
-70.893568 42.535128 -1.3
-70.893640 42.534795 -1.5
-70.893687 42.534684 -0.6
-70.893782 42.534462 -0.3
-70.893926 42.534128 -0.2
-70.894071 42.533792 0.1
-70.894218 42.533456 0.6
-70.894560 42.533998 0.4
-70.894415 42.534295 0.1
-70.894268 42.534592 0.0
-70.894121 42.534892 0.0
-70.893971 42.535192 -1.2
-70.893924 42.535295 -0.5
-70.893829 42.535503 -0.3
-70.893685 42.535817 -0.5
-70.893635 42.535920 -1.3
-70.893537 42.536131 0.0
-70.893951 42.536220 1.2
-70.894099 42.535926 0.7
-70.894246 42.535628 0.2
-70.894396 42.535331 0.1
-70.894546 42.535034 0.1
-70.894724 42.534728 0.2
-70.894907 42.534420 0.9
-70.895079 42.534687 0.2
-70.894896 42.534998 0.2
-70.894712 42.535312 0.2
-70.894526 42.535626 0.2
-70.894343 42.535939 0.4
-70.894157 42.536256 1.2
-70.894663 42.536103 0.4
-70.894841 42.535828 0.4
-70.895022 42.535551 0.4
-70.895202 42.535276 0.5
-70.895383 42.534998 1.0
-70.895441 42.534906 0.7
-70.895563 42.534720 1.0
-70.895258 42.535664 0.7
-70.895088 42.535931 0.5
-70.894916 42.536203 1.0
-70.892990 42.536106 -1.2
-70.892824 42.536403 -0.8
-70.892654 42.536703 0.7
-70.892562 42.536862 -0.2
-70.892485 42.537003 -0.2
-70.892312 42.537303 -0.5
-70.892285 42.537409 -0.7
-70.892224 42.537626 -3.5
-70.892135 42.537951 -5.0
-70.892074 42.538167 -5.5
-70.892046 42.538276 -5.5
-70.891954 42.538601 -2.9
-70.891849 42.538923 -1.6
-70.891743 42.539245 -1.0
-70.891635 42.539567 -0.8
-70.891576 42.539739 1.0
-70.891526 42.539892 0.7
-70.891468 42.540048 -0.2
-70.891415 42.540184 -0.4
-70.891301 42.540478 0.1
-70.891262 42.540578 0.9
-70.891185 42.540776 0.2
-70.890824 42.540337 -0.1
-70.890971 42.539989 0.9
-70.891021 42.539873 1.0
-70.891118 42.539642 -0.8
-70.891265 42.539292 -1.0
-70.891415 42.538942 -2.1
-70.891615 42.538617 -3.6
-70.891818 42.538292 -5.5
-70.892021 42.537967 -4.8
-70.892224 42.537642 -2.4
-70.892362 42.537484 -0.8
-70.892482 42.537342 -0.5
-70.892743 42.537042 0.1
-70.892918 42.536842 0.1
-70.893007 42.536739 0.5
-70.892968 42.536962 -0.1
-70.892885 42.537251 0.1
-70.892801 42.537539 -0.4
-70.892715 42.537831 -3.9
-70.892629 42.538123 -4.5
-70.892496 42.538439 -5.2
-70.892360 42.538759 -3.5
-70.892224 42.539078 -2.7
-70.892087 42.539398 -1.3
-70.891941 42.539706 -1.0
-70.891891 42.539812 0.5
-70.891794 42.540017 -0.4
-70.891647 42.540328 -0.2
-70.891497 42.540639 -0.1
-70.891408 42.540964 -0.2
-70.891719 42.541231 -0.2
-70.891813 42.540881 -0.2
-70.891911 42.540528 -0.2
-70.892005 42.540176 -0.4
-70.892102 42.539820 -0.8
-70.892277 42.539487 -1.8
-70.892336 42.539376 -3.0
-70.892452 42.539153 -3.5
-70.892547 42.538973 -3.6
-70.892630 42.538817 -2.9
-70.892808 42.538481 -4.7
-70.892944 42.538145 -4.4
-70.893018 42.537964 -4.5
-70.893082 42.537806 -4.1
-70.893218 42.537470 -0.5
-70.893310 42.537245 -0.1
-70.893357 42.537131 0.4
-70.893401 42.537020 0.7
-70.893496 42.536792 0.4
-70.893507 42.536789 0.7
-70.893812 42.536689 0.3
-70.893672 42.537051 0.2
-70.893622 42.537173 0.6
-70.893527 42.537414 -0.4
-70.893480 42.537537 -0.9
-70.893383 42.537778 -4.3
-70.893238 42.538145 -4.5
-70.893094 42.538498 -4.5
-70.892950 42.538851 -0.9
-70.892805 42.539203 -2.8
-70.892658 42.539559 -3.7
-70.892508 42.539901 -3.5
-70.892358 42.540242 -0.3
-70.892208 42.540587 -0.1
-70.892058 42.540931 -0.3
-70.891936 42.541276 -0.3
-70.891813 42.541623 -0.3
-70.891688 42.541970 0.3
-70.891563 42.542317 0.3
-70.890246 42.540431 0.0
-70.890379 42.540084 0.0
-70.890515 42.539737 -0.6
-70.890651 42.539389 -0.9
-70.890787 42.539039 -2.4
-70.890876 42.538862 -4.1
-70.890954 42.538703 -4.1
-70.891121 42.538364 -5.3
-70.891287 42.538028 -5.6
-70.891454 42.537689 -4.2
-70.891665 42.537381 -0.5
-70.891879 42.537070 -0.2
-70.892093 42.536759 -0.1
-70.892310 42.536448 -1.5
-70.892468 42.536128 -0.4
-70.892629 42.535806 -0.4
-70.892790 42.535487 -0.4
-70.892951 42.535164 -0.4
-70.893087 42.534851 -0.7
-70.893224 42.534537 -0.7
-70.893360 42.534223 -0.7
-70.893499 42.533906 -0.5
-70.893574 42.533589 -0.2
-70.893651 42.533270 0.1
-70.893729 42.532951 0.5
-70.893810 42.532631 1.0
-70.894100 42.537103 -0.1
-70.893938 42.537412 -0.4
-70.893883 42.537514 -0.8
-70.893852 42.537576 -3.3
-70.893775 42.537720 -3.9
-70.893613 42.538028 -4.7
-70.893450 42.538337 -4.1
-70.893394 42.538498 -3.9
-70.893333 42.538687 -2.4
-70.893291 42.538803 -0.5
-70.893213 42.539037 -0.1
-70.893150 42.539223 0.1
-70.893094 42.539387 -0.2
-70.893013 42.539620 -2.4
-70.892972 42.539739 -2.6
-70.892911 42.539909 -2.7
-70.892855 42.540056 -3.2
-70.892736 42.540376 -3.3
-70.892616 42.540695 -0.1
-70.892497 42.541014 -0.1
-70.892380 42.541342 -0.4
-70.892263 42.541673 -0.4
-70.892144 42.542003 -0.4
-70.892025 42.542334 -0.2
-70.891913 42.542653 -0.3
-70.891800 42.542976 -0.3
-70.891688 42.543298 -0.3
-70.891575 42.543623 -0.3
-70.891430 42.543953 -0.6
-70.891283 42.544284 -2.8
-70.891202 42.544462 -3.4
-70.891136 42.544614 -3.2
-70.890986 42.544948 -0.3
-70.890827 42.545253 0.5
-70.890666 42.545559 0.7
-70.890502 42.545867 0.7
-70.889966 42.546467 0.5
-70.890066 42.546103 0.3
-70.890166 42.545737 0.3
-70.890266 42.545370 0.0
-70.890322 42.545176 -0.4
-70.890369 42.545003 -2.9
-70.890472 42.544801 -3.2
-70.890561 42.544620 -2.0
-70.890627 42.544492 -0.5
-70.890755 42.544237 -0.1
-70.890861 42.544031 0.6
-70.890950 42.543853 0.4
-70.891147 42.543467 0.1
-70.891247 42.543101 -0.1
-70.891350 42.542731 -0.1
-70.891455 42.542362 0.1
-70.891305 42.545126 -0.1
-70.891472 42.544767 0.1
-70.891563 42.544576 -0.2
-70.891641 42.544409 -1.1
-70.891719 42.544242 -3.0
-70.891811 42.544051 -3.2
-70.891980 42.543689 -3.2
-70.892105 42.543314 -2.9
-70.892233 42.542939 -2.6
-70.892361 42.542562 -1.3
-70.892430 42.542362 -0.7
-70.892491 42.542184 -0.8
-70.892669 42.541809 -0.5
-70.892847 42.541431 -0.2
-70.893025 42.541053 -0.2
-70.893122 42.540853 -3.0
-70.893205 42.540676 -3.3
-70.893377 42.540292 -0.5
-70.893552 42.539903 0.3
-70.910922 42.545117 -3.9
-70.913472 42.545542 -3.0
-70.915619 42.546576 -3.5
-70.916708 42.552459 -1.7
-70.916530 42.552081 -1.0
-70.916350 42.551701 -0.3
-70.916172 42.551323 -0.3
-70.915991 42.550942 -0.7
-70.915783 42.550592 -1.7
-70.915572 42.550242 -2.3
-70.915361 42.549892 -3.0
-70.915150 42.549542 -2.7
-70.914938 42.549189 -2.7
-70.914763 42.548814 -3.0
-70.914586 42.548439 -2.6
-70.914408 42.548062 -0.7
-70.914230 42.547684 -0.5
-70.915077 42.549459 -2.1
-70.915027 42.549084 -2.1
-70.914977 42.548706 -2.0
-70.914927 42.548331 -2.0
-70.914877 42.547953 -2.1
-70.914825 42.547576 -2.0
-70.914783 42.547156 -1.9
-70.914741 42.546737 -2.5
-70.914727 42.546598 -3.7
-70.914700 42.546317 -3.7
-70.914655 42.545895 -4.1
-70.915052 42.546256 -3.6
-70.914691 42.545984 -3.9
-70.914327 42.545712 -4.1
-70.913963 42.545439 -3.6
-70.913597 42.545164 -3.1
-70.914050 42.545453 -3.7
-70.913516 42.545359 -3.8
-70.912983 42.545262 -4.0
-70.912450 42.545167 -4.0
-70.911913 42.545070 -3.8
-70.911372 42.545028 -3.8
-70.910827 42.544981 -3.8
-70.910294 42.545192 -3.8
-70.909758 42.545406 -3.5
-70.909222 42.545620 -3.7
-70.908969 42.545720 -3.7
-70.908683 42.545837 -3.7
-70.908222 42.546095 -3.7
-70.908066 42.546181 -2.5
-70.907758 42.546353 -1.9
-70.907513 42.546492 -1.8
-70.907297 42.546612 -2.2
-70.906833 42.546873 -5.0
-70.906600 42.546742 -5.6
-70.906391 42.546628 -5.5
-70.905950 42.546384 -4.4
-70.905508 42.546139 -3.8
-70.905066 42.545892 -4.4
-70.904641 42.545609 -5.2
-70.904216 42.545323 -5.6
-70.903791 42.545037 -5.5
-70.903363 42.544751 -5.3
-70.902861 42.544567 -4.9
-70.902355 42.544381 -4.8
-70.901852 42.544195 -4.2
-70.901347 42.544006 -3.9
-70.900844 42.543809 -3.9
-70.900338 42.543609 -4.2
-70.899836 42.543409 -4.3
-70.899330 42.543209 -4.8
-70.861718 42.543978 -1.5
-70.861740 42.543667 -2.1
-70.861765 42.543353 -2.7
-70.861790 42.543042 -3.3
-70.861815 42.542728 -3.7
-70.861829 42.542389 -4.0
-70.861843 42.542051 -4.1
-70.861857 42.541712 -4.3
-70.861874 42.541370 -4.5
-70.861887 42.540992 -4.8
-70.861901 42.540614 -5.2
-70.861918 42.540237 -8.4
-70.861935 42.539856 -9.0
-70.861912 42.539523 -9.1
-70.861890 42.539189 -8.3
-70.861865 42.538853 -8.6
-70.861840 42.538517 -8.0
-70.861851 42.538164 -7.7
-70.861862 42.537812 -7.5
-70.861874 42.537459 -7.7
-70.861887 42.537103 -7.7
-70.861910 42.536745 -7.8
-70.861932 42.536387 -7.8
-70.861957 42.536028 -8.0
-70.861982 42.535667 -8.0
-70.862004 42.535309 -8.1
-70.862026 42.534951 -8.3
-70.862035 42.534828 -7.0
-70.862049 42.534589 -7.8
-70.862074 42.534228 -7.3
-70.862071 42.533887 -7.3
-70.862065 42.533542 -7.2
-70.862060 42.533198 -7.0
-70.862051 42.532854 -6.7
-70.862046 42.532496 -6.7
-70.862040 42.532135 -6.6
-70.862035 42.531774 -6.9
-70.862026 42.531413 -7.0
-70.862001 42.531168 -7.0
-70.861987 42.531046 -4.9
-70.861974 42.530924 -5.7
-70.861949 42.530679 -4.0
-70.861921 42.530432 -5.4
-70.861910 42.530310 -6.1
-70.861896 42.530188 -5.8
-70.861868 42.529940 -6.8
