-70.697033 42.539407 -35.8
-70.698614 42.540588 -27.8
-70.700308 42.541785 -20.2
-70.702000 42.542985 -24.5
-70.703695 42.544185 -22.4
-70.704258 42.544585 -21.5
-70.705386 42.545382 -23.3
-70.706956 42.546479 -29.8
-70.708522 42.547577 -30.4
-70.710089 42.548674 -31.6
-70.711656 42.549774 -31.9
-70.713350 42.550846 -32.2
-70.715045 42.551918 -33.7
-70.716739 42.552990 -33.4
-70.718433 42.554063 -33.1
-70.720128 42.555135 -32.2
-70.721825 42.556210 -30.1
-70.724203 42.555629 -29.7
-70.722497 42.554571 -30.9
-70.720792 42.553510 -32.7
-70.719083 42.552449 -33.3
-70.717375 42.551388 -34.6
-70.715689 42.550257 -34.3
-70.714000 42.549124 -34.0
-70.712311 42.547990 -33.0
-70.710620 42.546857 -34.3
-70.708967 42.545707 -28.8
-70.707311 42.544557 -34.9
-70.705656 42.543407 -31.9
-70.705106 42.543024 -27.6
-70.704000 42.542254 -30.7
-70.702400 42.541068 -27.6
-70.700800 42.539879 -33.7
-70.699197 42.538690 -33.1
-70.697596 42.537502 -40.1
-70.695994 42.536313 -38.3
-70.694391 42.535124 -47.4
-70.696185 42.531782 -48.7
-70.697652 42.532924 -47.5
-70.699119 42.534068 -46.3
-70.700586 42.535213 -45.0
-70.702053 42.536357 -37.1
-70.703636 42.537532 -41.4
-70.705220 42.538707 -35.9
-70.706803 42.539885 -29.2
-70.708389 42.541063 -37.7
-70.710014 42.542185 -38.3
-70.711639 42.543310 -37.4
-70.713267 42.544435 -38.3
-70.714895 42.545560 -37.7
-70.716531 42.546629 -37.1
-70.718170 42.547702 -35.9
-70.719808 42.548774 -35.3
-70.721447 42.549849 -33.8
-70.723181 42.550924 -32.9
-70.724917 42.551999 -31.6
-70.726656 42.553077 -30.4
-70.720083 42.550946 -32.9
-70.718428 42.549921 -35.0
-70.716772 42.548893 -35.3
-70.715114 42.547865 -35.5
-70.713456 42.546838 -37.4
-70.711778 42.545710 -37.7
-70.710097 42.544579 -32.8
-70.708420 42.543449 -35.8
-70.706739 42.542318 -32.2
-70.705164 42.541160 -29.4
-70.703586 42.539999 -33.7
-70.702008 42.538838 -37.4
-70.700431 42.537677 -39.2
-70.698870 42.536499 -39.8
-70.697305 42.535318 -45.6
-70.695744 42.534138 -47.4
-70.694180 42.532957 -49.0
-70.692705 42.531768 -50.8
-70.691230 42.530577 -51.1
-70.689752 42.529385 -50.5
-70.688274 42.528193 -51.4
-70.686813 42.526954 -52.0
-70.685349 42.525715 -52.0
-70.683888 42.524474 -51.4
-70.682424 42.523232 -51.7
-70.681024 42.522013 -52.0
-70.679621 42.520790 -52.3
-70.678219 42.519568 -52.9
-70.676813 42.518346 -53.8
-70.675482 42.517079 -54.7
-70.674152 42.515810 -55.4
-70.672818 42.514541 -55.7
-70.671484 42.513269 -57.2
-70.670159 42.512003 -58.3
-70.669495 42.511369 -53.2
-70.668831 42.510736 -53.5
-70.667504 42.509469 -59.6
-70.666176 42.508203 -59.9
-70.664923 42.506883 -60.2
-70.663673 42.505566 -60.5
-70.662423 42.504247 -61.1
-70.661170 42.502930 -62.0
-70.659920 42.501611 -62.6
-70.658668 42.500291 -63.5
-70.662684 42.498919 -62.9
-70.663968 42.500305 -62.2
-70.665251 42.501691 -61.0
-70.666534 42.503078 -61.0
-70.667818 42.504466 -61.0
-70.669170 42.505839 -55.2
-70.670526 42.507214 -59.5
-70.671881 42.508589 -58.3
-70.673237 42.509964 -57.7
-70.674676 42.511300 -56.4
-70.676119 42.512636 -55.5
-70.677560 42.513972 -55.2
-70.679002 42.515310 -54.3
-70.680419 42.516615 -53.7
-70.681838 42.517921 -53.1
-70.683257 42.519227 -51.8
-70.684680 42.520535 -46.6
-70.686327 42.521863 -51.5
-70.687974 42.523190 -51.2
-70.689624 42.524518 -50.9
-70.691274 42.525849 -50.6
-70.692710 42.527021 -50.0
-70.694146 42.528193 -49.4
-70.695582 42.529368 -48.1
-70.697021 42.530543 -46.9
-70.698605 42.531743 -45.7
-70.700188 42.532943 -44.7
-70.701772 42.534143 -44.1
-70.703358 42.535346 -43.2
-70.704970 42.536515 -41.9
-70.706581 42.537688 -41.0
-70.708192 42.538860 -39.5
-70.709806 42.540032 -38.0
-70.711472 42.541190 -37.4
-70.713139 42.542349 -37.2
-70.714806 42.543510 -37.2
-70.716475 42.544671 -37.2
-70.718164 42.545760 -35.8
-70.719853 42.546849 -35.5
-70.721545 42.547938 -34.6
-70.723236 42.549029 -33.4
-70.724950 42.550104 -32.5
-70.726664 42.551179 -31.6
-70.728379 42.552257 -30.7
-70.730096 42.553335 -29.1
-70.730982 42.551740 -29.7
-70.729465 42.550815 -30.6
-70.727947 42.549890 -31.8
-70.726431 42.548965 -32.4
-70.724914 42.548038 -33.3
-70.723292 42.546974 -34.3
-70.721667 42.545910 -34.9
-70.720042 42.544846 -35.5
-70.718417 42.543779 -36.1
-70.716820 42.542710 -36.7
-70.715222 42.541638 -36.7
-70.713622 42.540565 -36.9
-70.712022 42.539490 -37.0
-70.710442 42.538354 -37.6
-70.708858 42.537218 -39.1
-70.707275 42.536082 -41.0
-70.705692 42.534943 -42.5
-70.711020 42.534293 -39.4
-70.712581 42.535429 -38.2
-70.714142 42.536565 -37.2
-70.715703 42.537702 -36.6
-70.717267 42.538840 -36.6
-70.718925 42.539968 -36.3
-70.720586 42.541099 -36.3
-70.722247 42.542229 -35.7
-70.723911 42.543360 -35.1
-70.725620 42.544429 -34.5
-70.727331 42.545502 -33.9
-70.729042 42.546574 -33.0
-70.730754 42.547646 -31.8
-70.732465 42.548718 -31.0
-70.734179 42.549790 -30.2
-70.730404 42.549399 -31.7
-70.728753 42.548360 -32.6
-70.727100 42.547321 -33.2
-70.725447 42.546279 -34.1
-70.723792 42.545238 -34.7
-70.722181 42.544179 -35.4
-70.720570 42.543121 -36.0
-70.718958 42.542063 -36.3
-70.717345 42.541002 -36.6
-70.715750 42.539896 -36.9
-70.714156 42.538790 -36.9
-70.712561 42.537682 -37.2
-70.710964 42.536574 -38.4
-70.709447 42.535440 -40.2
-70.707928 42.534307 -41.5
-70.706408 42.533171 -42.7
-70.704889 42.532035 -43.3
-70.703386 42.530882 -44.2
-70.701880 42.529727 -44.8
-70.700377 42.528571 -45.7
-70.698871 42.527415 -46.9
-70.697374 42.526215 -47.5
-70.695877 42.525015 -48.5
-70.694380 42.523813 -49.4
-70.692880 42.522610 -50.7
-70.691471 42.521396 -51.0
-70.690063 42.520182 -51.6
-70.688655 42.518968 -52.2
-70.687246 42.517752 -52.5
-70.685874 42.516507 -51.6
-70.684502 42.515260 -53.4
-70.683127 42.514015 -54.0
-70.681752 42.512768 -54.9
-70.680413 42.511519 -55.5
-70.679074 42.510269 -56.1
-70.677732 42.509019 -56.8
-70.676390 42.507766 -57.4
-70.675115 42.506494 -58.3
-70.673837 42.505222 -58.9
-70.672559 42.503947 -59.8
-70.671279 42.502672 -60.4
-70.670001 42.501358 -58.0
-70.668720 42.500041 -61.3
-70.667440 42.498725 -62.2
-70.666156 42.497408 -62.8
-70.664987 42.496083 -63.2
-70.663818 42.494758 -64.4
-70.662648 42.493430 -64.7
-70.661479 42.492105 -65.6
-70.660309 42.490778 -65.6
-70.659137 42.489450 -66.2
-70.662379 42.487091 -65.6
-70.663537 42.488483 -65.3
-70.664695 42.489875 -65.3
-70.665854 42.491269 -64.4
-70.667015 42.492664 -64.1
-70.668340 42.494044 -63.2
-70.669668 42.495425 -62.5
-70.670995 42.496808 -61.9
-70.672326 42.498191 -61.3
-70.673637 42.499572 -60.4
-70.674951 42.500953 -60.1
-70.676262 42.502336 -59.2
-70.677576 42.503719 -58.6
-70.678960 42.505066 -57.7
-70.680346 42.506414 -57.1
-70.681732 42.507764 -56.4
-70.683121 42.509114 -55.5
-70.684563 42.510414 -55.2
-70.686005 42.511713 -53.1
-70.687446 42.513013 -53.1
-70.688891 42.514315 -53.4
-70.690341 42.515582 -52.8
-70.691791 42.516852 -51.0
-70.693241 42.518121 -50.4
-70.694691 42.519390 -49.7
-70.696249 42.520660 -49.1
-70.697807 42.521929 -48.2
-70.699366 42.523199 -46.9
-70.700924 42.524471 -46.3
-70.702485 42.525671 -45.4
-70.704049 42.526871 -44.8
-70.705614 42.528071 -43.9
-70.707181 42.529271 -43.0
-70.708803 42.530460 -42.4
-70.710425 42.531652 -41.1
-70.712047 42.532843 -40.2
-70.713672 42.534035 -39.0
-70.715331 42.535202 -38.1
-70.716989 42.536371 -37.5
-70.718647 42.537540 -37.2
-70.720308 42.538710 -36.9
-70.722003 42.539843 -36.9
-70.723700 42.540979 -36.3
-70.725395 42.542115 -35.7
-70.727092 42.543254 -34.7
-70.728808 42.544354 -34.1
-70.730528 42.545454 -33.2
-70.732248 42.546554 -32.6
-70.733968 42.547657 -31.4
-70.735734 42.548677 -31.1
-70.737504 42.549696 -30.2
-70.739273 42.550715 -29.3
-70.741046 42.551738 -27.7
-70.742465 42.550327 -28.3
-70.740804 42.549399 -29.3
-70.739140 42.548468 -30.2
-70.737476 42.547538 -30.8
-70.735812 42.546607 -31.5
-70.734076 42.545532 -32.4
-70.732336 42.544457 -33.3
-70.730597 42.543382 -33.9
-70.728856 42.542307 -34.5
-70.727236 42.541232 -35.4
-70.725617 42.540154 -36.0
-70.723997 42.539077 -36.6
-70.722375 42.537996 -36.9
-70.720797 42.536890 -37.6
-70.719220 42.535785 -37.6
-70.717642 42.534679 -38.2
-70.716061 42.533571 -38.5
-70.718000 42.530590 -39.7
-70.719622 42.531713 -39.1
-70.721245 42.532835 -38.5
-70.722867 42.533957 -38.2
-70.724492 42.535082 -37.6
-70.726158 42.536202 -37.2
-70.727825 42.537324 -36.6
-70.729492 42.538443 -36.0
-70.731158 42.539565 -35.1
-70.732867 42.540657 -34.2
-70.734579 42.541749 -33.3
-70.736290 42.542843 -32.4
-70.738001 42.543935 -31.8
-70.739715 42.545029 -30.8
-70.736362 42.545052 -31.8
-70.734732 42.543999 -32.7
-70.733097 42.542943 -33.3
-70.731464 42.541888 -34.3
-70.729831 42.540832 -34.9
-70.728233 42.539760 -35.8
-70.726636 42.538688 -36.4
-70.725036 42.537615 -37.0
-70.723436 42.536540 -37.3
-70.721886 42.535474 -37.9
-70.720336 42.534407 -38.2
-70.718786 42.533340 -38.5
-70.717236 42.532274 -39.1
-70.715758 42.531215 -39.7
-70.714278 42.530154 -40.4
-70.712642 42.528921 -41.0
-70.711008 42.527690 -41.6
-70.709375 42.526460 -42.8
-70.707742 42.525227 -43.4
-70.706245 42.524024 -44.3
-70.704746 42.522818 -44.9
-70.703249 42.521615 -45.8
-70.701749 42.520410 -46.8
-70.700219 42.519165 -47.7
-70.698685 42.517918 -48.3
-70.697152 42.516671 -49.6
-70.695619 42.515421 -50.8
-70.694232 42.514143 -51.8
-70.692846 42.512863 -52.7
-70.691460 42.511585 -53.3
-70.690071 42.510304 -54.2
-70.688630 42.509028 -53.6
-70.687185 42.507747 -52.1
-70.685741 42.506466 -52.1
-70.684296 42.505183 -52.4
-70.682988 42.503872 -56.9
-70.681677 42.502558 -57.9
-70.680365 42.501247 -58.5
-70.679054 42.499933 -58.8
-70.677765 42.498578 -59.1
-70.676473 42.497222 -60.6
-70.675181 42.495864 -61.5
-70.673890 42.494505 -61.8
-70.672640 42.493178 -62.4
-70.671390 42.491847 -62.7
-70.670140 42.490516 -62.8
-70.668890 42.489183 -63.1
-70.667706 42.487775 -64.3
-70.666523 42.486366 -64.3
-70.665340 42.484955 -65.2
-70.664156 42.483544 -65.8
-70.663029 42.482141 -66.1
-70.661898 42.480736 -66.1
-70.660768 42.479333 -67.1
-70.659634 42.477928 -67.4
-70.661676 42.474441 -60.0
-70.662884 42.475914 -60.7
-70.664095 42.477386 -61.9
-70.665306 42.478861 -61.9
-70.666465 42.480272 -61.0
-70.667623 42.481686 -59.4
-70.668781 42.483100 -53.7
-70.669943 42.484516 -51.6
-70.671218 42.485930 -54.6
-70.672495 42.487347 -58.3
-70.673773 42.488764 -56.8
-70.675054 42.490180 -51.6
-70.676379 42.491575 -50.4
-70.677704 42.492972 -52.8
-70.679029 42.494366 -55.5
-70.680354 42.495764 -57.1
-70.681706 42.497150 -55.5
-70.683060 42.498539 -56.1
-70.684413 42.499925 -56.8
-70.685769 42.501314 -56.1
-70.687174 42.502639 -53.7
-70.688580 42.503966 -50.0
-70.689988 42.505294 -50.0
-70.691396 42.506625 -50.4
-70.692116 42.507278 -48.2
-70.692835 42.507933 -53.4
-70.694274 42.509240 -53.4
-70.695713 42.510549 -52.2
-70.697155 42.511857 -51.9
-70.698660 42.513132 -50.7
-70.700166 42.514410 -49.8
-70.701674 42.515688 -48.8
-70.703182 42.516965 -47.9
-70.704724 42.518202 -46.7
-70.706269 42.519438 -45.8
-70.707813 42.520674 -45.2
-70.709358 42.521913 -44.3
-70.710936 42.523127 -43.6
-70.712514 42.524340 -42.7
-70.714092 42.525554 -41.8
-70.715672 42.526771 -41.2
-70.717314 42.527946 -40.6
-70.718958 42.529121 -40.0
-70.720603 42.530299 -39.4
-70.722250 42.531477 -38.8
-70.723945 42.532607 -38.2
-70.725642 42.533740 -37.6
-70.727336 42.534874 -37.3
-70.729033 42.536007 -36.7
-70.730753 42.537132 -35.8
-70.732475 42.538257 -34.9
-70.734195 42.539382 -34.0
-70.735918 42.540507 -33.3
-70.737637 42.541632 -32.1
-70.739359 42.542757 -31.2
-70.740837 42.541593 -31.1
-70.739118 42.540518 -30.2
-70.737398 42.539443 -32.6
-70.735675 42.538368 -33.8
-70.733964 42.537246 -34.4
-70.732250 42.536124 -34.7
-70.730536 42.535002 -33.8
-70.729681 42.534440 -31.4
-70.728822 42.533877 -36.3
-70.727167 42.532724 -34.1
-70.725511 42.531568 -38.1
-70.723856 42.530415 -38.7
-70.722197 42.529260 -39.3
-70.724245 42.525885 -39.9
-70.725731 42.527021 -39.1
-70.727217 42.528160 -36.2
-70.728703 42.529299 -37.1
-70.729695 42.530057 -21.8
-70.730189 42.530435 -30.4
-70.731853 42.531577 -30.4
-70.732683 42.532146 -24.9
-70.733514 42.532715 -28.2
-70.735175 42.533857 -26.4
-70.736836 42.534996 -31.9
-70.738543 42.536068 -31.0
-70.740248 42.537138 -27.6
-70.741954 42.538207 -29.8
-70.743662 42.539279 -31.0
-70.743123 42.540882 -27.9
-70.741476 42.539888 -27.6
-70.739829 42.538890 -27.9
-70.738182 42.537893 -31.9
-70.736539 42.536768 -32.6
-70.734900 42.535646 -31.3
-70.734078 42.535085 -28.2
-70.733258 42.534524 -31.9
-70.731620 42.533399 -26.7
-70.729956 42.532293 -36.1
-70.729125 42.531738 -31.3
-70.728292 42.531185 -33.4
-70.726631 42.530077 -38.0
-70.724967 42.528971 -38.6
-70.723333 42.527832 -39.8
-70.721700 42.526693 -40.4
-70.720064 42.525557 -41.3
-70.718428 42.524418 -41.9
-70.716895 42.523229 -42.6
-70.715358 42.522040 -43.5
-70.713822 42.520852 -44.1
-70.712286 42.519660 -44.7
-70.710781 42.518452 -45.5
-70.709274 42.517240 -46.1
-70.707766 42.516029 -47.1
-70.706257 42.514815 -48.0
-70.704799 42.513590 -48.9
-70.703338 42.512363 -49.8
-70.701877 42.511135 -51.1
-70.700413 42.509907 -52.0
-70.699005 42.508604 -52.9
-70.697596 42.507299 -53.5
-70.696188 42.505994 -54.1
-70.694777 42.504686 -50.8
-70.693396 42.503408 -48.3
-70.692016 42.502128 -52.3
-70.690635 42.500847 -53.8
-70.689252 42.499564 -53.8
-70.687938 42.498247 -55.6
-70.686624 42.496930 -56.2
-70.685310 42.495611 -56.8
-70.683993 42.494291 -56.8
-70.682712 42.492944 -56.5
-70.681431 42.491597 -53.5
-70.680148 42.490250 -50.0
-70.678865 42.488900 -49.4
-70.677668 42.487530 -48.8
-70.676470 42.486161 -51.0
-70.675273 42.484791 -52.5
-70.674073 42.483419 -53.8
-70.672895 42.482025 -55.9
-70.671718 42.480628 -56.8
-70.670540 42.479230 -55.3
-70.669359 42.477833 -57.4
-70.668251 42.476422 -58.9
-70.667143 42.475011 -59.2
-70.666034 42.473600 -60.1
-70.664920 42.472183 -60.7
-70.663870 42.470750 -61.6
-70.662818 42.469311 -62.5
-70.661765 42.467872 -65.0
-70.660712 42.466433 -65.3
-70.659659 42.464994 -65.6
-70.658605 42.463555 -69.9
-70.661629 42.460866 -69.2
-70.662776 42.462319 -68.3
-70.663923 42.463775 -67.7
-70.665073 42.465233 -66.8
-70.666043 42.466725 -65.8
-70.667015 42.468219 -65.2
-70.667987 42.469714 -64.9
-70.668962 42.471208 -64.3
-70.670118 42.472650 -63.1
-70.671276 42.474091 -61.9
-70.672434 42.475533 -59.4
-70.673593 42.476975 -59.4
-70.674809 42.478389 -59.4
-70.676026 42.479803 -59.1
-70.677243 42.481216 -54.5
-70.678462 42.482633 -54.2
-70.679731 42.484036 -54.8
-70.681004 42.485441 -56.3
-70.682276 42.486847 -56.0
-70.683551 42.488255 -57.2
-70.684818 42.489625 -57.9
-70.686085 42.490997 -56.9
-70.687352 42.492369 -57.9
-70.688621 42.493741 -56.9
-70.690038 42.495075 -54.8
-70.691455 42.496408 -55.1
-70.692871 42.497741 -53.9
-70.694288 42.499078 -53.3
-70.695680 42.500403 -53.8
-70.697074 42.501728 -55.0
-70.698469 42.503053 -54.7
-70.699863 42.504378 -54.1
-70.701327 42.505671 -53.5
-70.702791 42.506968 -52.9
-70.704257 42.508265 -52.6
-70.705724 42.509563 -51.7
-70.707216 42.510807 -50.2
-70.708710 42.512054 -49.2
-70.710205 42.513302 -48.0
-70.711702 42.514552 -47.4
-70.713222 42.515771 -46.1
-70.714745 42.516993 -45.5
-70.716267 42.518215 -44.9
-70.717792 42.519438 -44.0
-70.719400 42.520629 -43.3
-70.721008 42.521824 -42.7
-70.722617 42.523018 -42.1
-70.724228 42.524215 -38.2
-70.725058 42.524788 -42.1
-70.725892 42.525363 -39.1
-70.727556 42.526510 -42.7
-70.729222 42.527660 -40.0
-70.730886 42.528807 -35.4
-70.732567 42.529918 -33.6
-70.733686 42.530660 -31.8
-70.734247 42.531029 -35.1
-70.735367 42.531771 -27.7
-70.735925 42.532140 -29.9
-70.736764 42.532696 -33.6
-70.737606 42.533252 -29.0
-70.739284 42.534363 -34.5
-70.740965 42.535474 -29.0
-70.739592 42.532579 -26.7
-70.738775 42.532035 -31.6
-70.737958 42.531493 -25.7
-70.736870 42.530768 -37.1
-70.736328 42.530407 -32.8
-70.734695 42.529321 -31.6
-70.733064 42.528235 -40.1
-70.731483 42.527129 -40.4
-70.729906 42.526024 -41.6
-70.728328 42.524918 -42.2
-70.726747 42.523810 -42.6
-70.728106 42.520402 -42.6
-70.729720 42.521568 -41.9
-70.731336 42.522738 -41.3
-70.732953 42.523907 -40.7
-70.734622 42.525015 -40.7
-70.736292 42.526124 -41.3
-70.737964 42.527235 -40.1
-70.739633 42.528343 -37.0
-70.741306 42.529454 -37.6
-70.741576 42.531693 -35.2
-70.740000 42.530679 -32.4
-70.739475 42.530340 -28.1
-70.738425 42.529663 -37.0
-70.736850 42.528646 -39.4
-70.736061 42.528138 -34.6
-70.735275 42.527632 -37.0
-70.733686 42.526513 -33.3
-70.732097 42.525396 -40.9
-70.730508 42.524279 -41.2
-70.728922 42.523163 -41.8
-70.727347 42.522015 -42.1
-70.725775 42.520871 -42.7
-70.724203 42.519727 -43.3
-70.722628 42.518579 -43.6
-70.721153 42.517413 -44.3
-70.719678 42.516246 -44.9
-70.718203 42.515079 -45.8
-70.716728 42.513910 -46.4
-70.715256 42.512724 -47.3
-70.713783 42.511535 -48.2
-70.712310 42.510349 -48.8
-70.710835 42.509160 -49.8
-70.709410 42.507938 -51.0
-70.707985 42.506713 -51.9
-70.706557 42.505488 -52.5
-70.705130 42.504263 -53.4
-70.703757 42.503011 -53.7
-70.702385 42.501755 -54.3
-70.701010 42.500503 -54.9
-70.699635 42.499247 -55.2
-70.698335 42.497997 -55.5
-70.697035 42.496747 -55.5
-70.695735 42.495494 -55.5
-70.694432 42.494241 -56.4
-70.693180 42.492944 -56.4
-70.691927 42.491647 -57.4
-70.690674 42.490350 -57.9
-70.689419 42.489050 -58.2
-70.688180 42.487722 -58.5
-70.686940 42.486391 -59.7
-70.685698 42.485061 -60.0
-70.684456 42.483730 -58.2
-70.683331 42.482422 -60.0
-70.682206 42.481114 -60.0
-70.681081 42.479805 -60.7
-70.679954 42.478497 -62.5
-70.678826 42.477150 -63.1
-70.677695 42.475800 -63.4
-70.676565 42.474450 -63.7
-70.675431 42.473100 -64.3
-70.674318 42.471719 -64.6
-70.673204 42.470336 -63.6
-70.672090 42.468953 -64.6
-70.671531 42.468261 -62.1
-70.670973 42.467572 -59.4
-70.669962 42.466161 -63.6
-70.668948 42.464753 -65.5
-70.667934 42.463344 -66.1
-70.666918 42.461933 -66.1
-70.665940 42.460497 -67.3
-70.664962 42.459058 -67.6
-70.663984 42.457619 -67.9
-70.663004 42.456179 -67.9
-70.662058 42.454731 -67.9
-70.661111 42.453281 -67.0
-70.660164 42.451831 -65.1
-70.659217 42.450381 -64.2
-70.664264 42.450537 -57.0
-70.665184 42.452054 -59.4
-70.666106 42.453570 -63.4
-70.667029 42.455087 -63.7
-70.667954 42.456605 -65.2
-70.669006 42.458097 -64.3
-70.670062 42.459591 -64.6
-70.671115 42.461086 -61.0
-70.672170 42.462580 -59.7
-70.673345 42.464078 -57.3
-70.674520 42.465575 -53.9
-70.675695 42.467072 -56.1
-70.676870 42.468572 -62.8
-70.678026 42.470053 -63.1
-70.679181 42.471533 -63.4
-70.680340 42.473016 -63.3
-70.681498 42.474500 -63.3
-70.682765 42.475972 -62.7
-70.684031 42.477444 -62.1
-70.685298 42.478919 -62.1
-70.686565 42.480394 -61.2
-70.687884 42.481811 -60.6
-70.689206 42.483228 -59.1
-70.690530 42.484644 -56.6
-70.691855 42.486061 -56.0
-70.693230 42.487478 -54.5
-70.694605 42.488897 -51.5
-70.695980 42.490316 -56.9
-70.697355 42.491736 -56.9
-70.698760 42.493116 -56.6
-70.700166 42.494500 -56.3
-70.701571 42.495883 -55.7
-70.702980 42.497266 -55.4
-70.703980 42.498153 -52.6
-70.704480 42.498597 -55.0
-70.705980 42.499928 -54.1
-70.707480 42.501261 -53.5
-70.708980 42.502590 -52.9
-70.710471 42.503907 -52.0
-70.711966 42.505221 -51.1
-70.713460 42.506538 -50.2
-70.714955 42.507854 -49.6
-70.716514 42.509129 -48.6
-70.718072 42.510404 -48.0
-70.719633 42.511679 -47.0
-70.721195 42.512954 -46.1
-70.722795 42.514190 -45.5
-70.724395 42.515429 -44.9
-70.725995 42.516668 -44.3
-70.727595 42.517910 -43.3
-70.729272 42.519085 -42.4
-70.730395 42.519868 -39.1
-70.730953 42.520260 -43.3
-70.732633 42.521438 -40.9
-70.734314 42.522613 -41.2
-70.735995 42.523774 -31.5
-70.737672 42.524935 -40.0
-70.739350 42.526096 -36.6
-70.741031 42.527260 -38.2
-70.743261 42.526574 -23.7
-70.741664 42.525610 -30.8
-70.740064 42.524646 -38.7
-70.738464 42.523679 -37.2
-70.736883 42.522521 -29.3
-70.735300 42.521360 -40.5
-70.734508 42.520779 -37.8
-70.733717 42.520199 -40.8
-70.732136 42.519038 -43.0
-70.736883 42.518177 -42.3
-70.738575 42.519285 -38.6
-70.740267 42.520393 -35.9
-70.741395 42.521132 -26.7
-70.741958 42.521502 -30.4
-70.742803 42.522054 -26.7
-70.743650 42.522610 -30.1
-70.741839 42.523579 -23.6
-70.740331 42.522521 -37.1
-70.739575 42.521990 -31.9
-70.738820 42.521463 -38.0
-70.737811 42.520754 -32.8
-70.737308 42.520402 -37.7
-70.735795 42.519340 -38.6
-70.735436 42.519082 -42.2
-70.735022 42.518785 -38.6
-70.734250 42.518229 -42.9
-70.732703 42.517115 -42.9
-70.731156 42.516002 -43.8
-70.729608 42.514888 -44.4
-70.728120 42.513727 -45.0
-70.726633 42.512568 -45.9
-70.725147 42.511410 -46.5
-70.723658 42.510252 -47.1
-70.722233 42.509082 -48.0
-70.720806 42.507910 -48.3
-70.719378 42.506740 -49.3
-70.717947 42.505568 -46.5
-70.716488 42.504385 -50.5
-70.715030 42.503202 -51.1
-70.713569 42.502018 -52.1
-70.712107 42.500835 -52.7
-70.710788 42.499594 -53.6
-70.709466 42.498353 -54.5
-70.708146 42.497111 -55.1
-70.706824 42.495866 -55.7
-70.705527 42.494616 -56.0
-70.704230 42.493364 -56.6
-70.702930 42.492111 -56.9
-70.701630 42.490855 -57.5
-70.700388 42.489566 -57.9
-70.699146 42.488275 -58.5
-70.697905 42.486983 -58.8
-70.696660 42.485691 -58.5
-70.695419 42.484383 -59.1
-70.694177 42.483072 -60.0
-70.692932 42.481761 -60.4
-70.691688 42.480450 -60.7
-70.690509 42.479139 -61.0
-70.689329 42.477825 -61.0
-70.688151 42.476514 -61.3
-70.686970 42.475200 -61.6
-70.685881 42.473822 -61.9
-70.684790 42.472441 -61.9
-70.683698 42.471064 -62.2
-70.682606 42.469683 -62.5
-70.681498 42.468286 -62.8
-70.680390 42.466886 -63.1
-70.679281 42.465486 -62.8
-70.678170 42.464086 -63.1
-70.677176 42.462672 -63.4
-70.676181 42.461255 -63.7
-70.675187 42.459839 -63.4
-70.674190 42.458422 -59.7
-70.673229 42.456989 -57.9
-70.672265 42.455553 -56.7
-70.671301 42.454117 -54.9
-70.670337 42.452681 -54.6
-70.669376 42.451217 -54.9
-70.668412 42.449754 -52.7
-70.667451 42.448290 -52.1
-70.666486 42.446823 -51.5
-70.665644 42.445342 -48.1
-70.664800 42.443862 -61.3
-70.663955 42.442381 -67.1
-70.663111 42.440901 -67.7
-70.662264 42.439417 -68.0
-70.667767 42.440579 -66.8
-70.668603 42.442117 -64.0
-70.669440 42.443654 -54.3
-70.669856 42.444423 -48.8
-70.670276 42.445190 -51.5
-70.671112 42.446726 -53.9
-70.672090 42.448259 -56.7
-70.673068 42.449792 -55.8
-70.674045 42.451326 -52.7
-70.675026 42.452859 -51.8
-70.676084 42.454358 -51.8
-70.677143 42.455858 -53.6
-70.678201 42.457361 -54.3
-70.679259 42.458864 -54.6
-70.680362 42.460333 -57.9
-70.681468 42.461805 -57.9
-70.682573 42.463275 -57.6
-70.683681 42.464747 -58.5
-70.684829 42.466214 -60.7
-70.685979 42.467683 -60.7
-70.687129 42.469153 -60.0
-70.688279 42.470622 -59.7
-70.689481 42.472058 -59.7
-70.690687 42.473494 -59.7
-70.691893 42.474930 -60.4
-70.693102 42.476369 -60.4
-70.694377 42.477769 -60.4
-70.695652 42.479169 -60.0
-70.696927 42.480572 -59.7
-70.698202 42.481975 -59.4
-70.699574 42.483353 -59.1
-70.700946 42.484733 -58.8
-70.702321 42.486114 -58.2
-70.703696 42.487494 -57.3
-70.705044 42.488864 -56.4
-70.706394 42.490236 -54.6
-70.707744 42.491605 -51.2
-70.709094 42.492978 -50.3
-70.710530 42.494261 -48.4
-70.711966 42.495544 -53.9
-70.713402 42.496828 -53.6
-70.714841 42.498114 -53.0
-70.716349 42.499414 -52.1
-70.717857 42.500715 -51.5
-70.719369 42.502018 -50.9
-70.720881 42.503321 -50.3
-70.722406 42.504579 -49.7
-70.723933 42.505838 -49.1
-70.725461 42.507099 -48.4
-70.726989 42.508360 -47.5
-70.728578 42.509560 -46.9
-70.730167 42.510760 -46.3
-70.731756 42.511960 -45.4
-70.733347 42.513160 -44.7
-70.734997 42.514346 -43.8
-70.736647 42.515535 -43.2
-70.738297 42.516724 -43.2
-70.739122 42.517318 -31.9
-70.739947 42.517913 -41.4
-70.741597 42.519102 -32.2
-70.743617 42.516288 -40.8
-70.742092 42.515177 -42.3
-70.740567 42.514068 -43.5
-70.739042 42.512960 -44.1
-70.737514 42.511852 -44.7
-70.735995 42.510713 -45.0
-70.734472 42.509571 -45.7
-70.732950 42.508429 -46.3
-70.731428 42.507288 -46.9
-70.729953 42.506127 -47.5
-70.728475 42.504965 -48.1
-70.726997 42.503804 -49.1
-70.725517 42.502640 -49.7
-70.724120 42.501432 -50.9
-70.722722 42.500224 -51.2
-70.721325 42.499015 -51.8
-70.719924 42.497805 -51.2
-70.718557 42.496553 -50.3
-70.717191 42.495297 -49.4
-70.715821 42.494041 -50.7
-70.714452 42.492786 -50.4
-70.713113 42.491544 -46.0
-70.711774 42.490303 -46.9
-70.710435 42.489061 -45.7
-70.709094 42.487819 -46.9
-70.707830 42.486533 -50.0
-70.706563 42.485244 -55.8
-70.705296 42.483955 -58.0
-70.704030 42.482664 -58.3
-70.702816 42.481350 -58.6
-70.701599 42.480036 -58.9
-70.700382 42.478719 -59.2
-70.699166 42.477403 -59.5
-70.697974 42.476058 -59.5
-70.696780 42.474711 -59.8
-70.695585 42.473366 -55.2
-70.694391 42.472019 -57.7
-70.693256 42.470658 -56.4
-70.692123 42.469294 -57.7
-70.690990 42.467930 -58.9
-70.689854 42.466564 -59.2
-70.688806 42.465180 -58.6
-70.687759 42.463794 -56.1
-70.686709 42.462408 -54.9
-70.685659 42.461022 -52.5
-70.684631 42.459614 -52.5
-70.683601 42.458205 -53.7
-70.682570 42.456794 -51.3
-70.681540 42.455383 -52.5
-70.680576 42.453958 -51.6
-70.679612 42.452534 -50.4
-70.678645 42.451109 -51.6
-70.677679 42.449684 -53.5
-70.676754 42.448220 -55.3
-70.675826 42.446754 -55.9
-70.674898 42.445287 -52.5
-70.673970 42.443820 -49.5
-70.673537 42.443090 -45.2
-70.672229 42.440890 -55.9
-70.671356 42.439426 -66.6
-70.676037 42.439292 -66.4
-70.676926 42.440834 -61.0
-70.677812 42.442381 -46.6
-70.678698 42.443926 -53.0
-70.679584 42.445473 -57.3
-70.680615 42.447009 -55.5
-70.681645 42.448548 -51.5
-70.682676 42.450087 -51.2
-70.683704 42.451623 -51.5
-70.684768 42.453144 -50.9
-70.685831 42.454666 -49.4
-70.686895 42.456189 -48.7
-70.687959 42.457711 -48.7
-70.689068 42.459153 -48.7
-70.690176 42.460591 -49.4
-70.691284 42.462030 -49.7
-70.692390 42.463472 -54.6
-70.693579 42.464978 -55.2
-70.694768 42.466483 -54.0
-70.695957 42.467991 -52.5
-70.697149 42.469500 -52.5
-70.698419 42.470916 -51.0
-70.699691 42.472333 -52.5
-70.700963 42.473750 -54.6
-70.702235 42.475169 -54.9
-70.703510 42.476564 -56.4
-70.704788 42.477961 -58.0
-70.706066 42.479355 -58.0
-70.707346 42.480753 -57.7
-70.708732 42.482116 -57.4
-70.710121 42.483483 -56.8
-70.711510 42.484850 -56.1
-70.712899 42.486216 -55.5
-70.714294 42.487530 -55.2
-70.715691 42.488844 -54.9
-70.717088 42.490161 -53.8
-70.718485 42.491478 -53.5
-70.719913 42.492783 -53.2
-70.721344 42.494089 -53.2
-70.722771 42.495397 -52.5
-70.724203 42.496705 -51.6
-70.725711 42.497940 -51.0
-70.727220 42.499179 -50.1
-70.728731 42.500415 -49.5
-70.730242 42.501654 -48.8
-70.731792 42.502874 -47.9
-70.733345 42.504096 -47.6
-70.734897 42.505315 -46.7
-70.736453 42.506538 -46.1
-70.738053 42.507732 -45.5
-70.739653 42.508929 -44.9
-70.741256 42.510127 -43.7
-70.742858 42.511327 -41.3
-70.744636 42.508374 -44.0
-70.743133 42.507179 -44.9
-70.741631 42.505982 -44.9
-70.740628 42.505185 -43.1
-70.740122 42.504782 -44.9
-70.738603 42.503604 -45.8
-70.737081 42.502421 -46.1
-70.735556 42.501238 -46.1
-70.734033 42.500057 -45.5
-70.732583 42.498854 -46.1
-70.731136 42.497654 -48.0
-70.729686 42.496454 -49.6
-70.728239 42.495255 -50.8
-70.726803 42.493986 -51.5
-70.725370 42.492716 -52.4
-70.723932 42.491447 -53.0
-70.722496 42.490175 -53.6
-70.721135 42.488911 -53.9
-70.719771 42.487647 -53.9
-70.718407 42.486383 -54.2
-70.717041 42.485116 -54.5
-70.715749 42.483808 -55.1
-70.714457 42.482497 -55.4
-70.713166 42.481186 -56.0
-70.711874 42.479875 -56.3
-70.710616 42.478555 -56.1
-70.709355 42.477233 -53.0
-70.708094 42.475911 -48.1
-70.706830 42.474589 -46.6
-70.705613 42.473241 -46.3
-70.704396 42.471894 -46.9
-70.703180 42.470547 -46.6
-70.701960 42.469197 -46.9
-70.700830 42.467830 -47.5
-70.699696 42.466461 -48.1
-70.698563 42.465091 -47.8
-70.697429 42.463722 -47.8
-70.696348 42.462322 -48.1
-70.695268 42.460922 -50.0
-70.694184 42.459519 -51.6
-70.693101 42.458116 -51.6
-70.692065 42.456705 -51.9
-70.691026 42.455291 -50.7
-70.689987 42.453878 -46.9
-70.688948 42.452464 -49.4
-70.687954 42.451001 -49.7
-70.686956 42.449537 -49.1
-70.686459 42.448804 -43.3
-70.685962 42.448070 -49.1
-70.684965 42.446606 -51.0
-70.684093 42.445167 -51.9
-70.683218 42.443731 -51.3
-70.682345 42.442295 -49.7
-70.681906 42.441576 -42.1
-70.681470 42.440859 -48.2
-70.680598 42.439420 -58.9
-70.684181 42.437967 -64.4
-70.685145 42.439440 -56.1
-70.686112 42.440915 -45.7
-70.687079 42.442390 -35.4
-70.688087 42.443915 -44.5
-70.689098 42.445442 -37.5
-70.690109 42.446970 -46.9
-70.691120 42.448501 -50.7
-70.692131 42.450001 -51.3
-70.693145 42.451500 -48.5
-70.694156 42.453000 -52.2
-70.695170 42.454500 -53.7
-70.696281 42.455936 -55.5
-70.697395 42.457375 -53.7
-70.698509 42.458814 -56.4
-70.699624 42.460253 -54.6
-70.700791 42.461680 -52.2
-70.701960 42.463111 -50.7
-70.703130 42.464541 -49.7
-70.704299 42.465975 -48.5
-70.705535 42.467364 -49.1
-70.706774 42.468753 -46.0
-70.708013 42.470141 -43.0
-70.709255 42.471533 -43.0
-70.710527 42.472883 -43.0
-70.711799 42.474236 -43.6
-70.713074 42.475589 -49.4
-70.714349 42.476944 -54.6
-70.715635 42.478291 -54.3
-70.716924 42.479639 -52.2
-70.718213 42.480989 -48.5
-70.719505 42.482339 -49.4
-70.720885 42.483622 -49.1
-70.722266 42.484908 -45.7
-70.723649 42.486194 -46.6
-70.725032 42.487480 -52.8
-70.726453 42.488750 -52.5
-70.727875 42.490019 -51.9
-70.729297 42.491289 -50.0
-70.730720 42.492561 -46.6
-70.732189 42.493778 -43.0
-70.733661 42.494997 -46.6
-70.735131 42.496215 -44.2
-70.736603 42.497435 -43.9
-70.738117 42.498613 -43.6
-70.739633 42.499793 -43.6
-70.741150 42.500971 -43.0
-70.742667 42.502152 -43.9
-70.744183 42.503329 -43.9
-70.745700 42.504510 -43.3
-70.726882 42.555340 -28.9
-70.725161 42.554263 -30.2
-70.723439 42.553182 -31.4
-70.721717 42.552104 -33.2
-70.719995 42.551024 -33.5
-70.718272 42.549943 -35.0
-70.716550 42.548863 -35.6
-70.697447 42.552804 -31.3
-70.699631 42.553093 -31.9
-70.700361 42.553190 -31.0
-70.701817 42.553382 -33.5
-70.704003 42.553671 -32.2
-70.706189 42.553963 -27.9
-70.708422 42.554204 -18.7
-70.709542 42.554327 -15.4
-70.710658 42.554449 -18.7
-70.712895 42.554693 -29.1
-70.714014 42.554815 -25.8
-70.715131 42.554938 -27.9
-70.719447 42.557049 -30.4
-70.717314 42.556821 -30.7
-70.715181 42.556590 -28.8
-70.713047 42.556360 -26.9
-70.710911 42.556127 -27.2
-70.708645 42.555871 -25.4
-70.706375 42.555615 -27.9
-70.704106 42.555357 -29.7
-70.701836 42.555099 -26.6
-70.699567 42.551532 -27.6
-70.701739 42.551815 -33.4
-70.703914 42.552099 -33.7
-70.706089 42.552382 -31.6
-70.708264 42.552668 -26.0
-70.709347 42.552774 -19.0
-70.710431 42.552882 -25.7
-70.712597 42.553096 -30.4
-70.714764 42.553313 -33.7
-70.716931 42.553527 -33.7
-70.722908 42.544610 -35.8
-70.724950 42.544746 -35.2
-70.726995 42.544885 -34.6
-70.729039 42.545024 -34.0
-70.731086 42.545165 -33.3
-70.733296 42.545307 -32.7
-70.735504 42.545449 -32.1
-70.737715 42.545590 -31.5
-70.739926 42.545732 -30.9
-70.742890 42.544246 -30.3
-70.740687 42.544146 -30.9
-70.738482 42.544043 -31.5
-70.736276 42.543940 -32.1
-70.734071 42.543835 -33.0
-70.731764 42.543665 -33.6
-70.729458 42.543493 -34.2
-70.727153 42.543324 -34.8
-70.724845 42.543152 -35.1
-70.721814 42.546135 -35.1
-70.723964 42.546285 -34.8
-70.726114 42.546435 -34.2
-70.728267 42.546588 -33.3
-70.730417 42.546738 -33.0
-70.732571 42.546890 -32.4
-70.735725 42.529588 -33.8
-70.733478 42.529460 -39.0
-70.732353 42.529393 -30.5
-70.731231 42.529329 -31.4
-70.728981 42.529199 -36.0
-70.727483 42.529110 -34.7
-70.726733 42.529068 -37.2
-70.724483 42.528938 -39.0
-70.722233 42.530274 -39.3
-70.724464 42.530440 -39.0
-70.726695 42.530610 -38.0
-70.728925 42.530779 -28.8
-70.731158 42.530949 -32.6
-70.732645 42.531063 -24.9
-70.733389 42.531118 -27.0
-70.735620 42.531288 -29.1
-70.736028 42.533102 -29.4
-70.734958 42.533013 -23.7
-70.733886 42.532921 -27.9
-70.731739 42.532738 -26.4
-70.729595 42.532554 -35.6
-70.727447 42.532371 -30.4
-70.725303 42.532188 -38.0
-70.723156 42.532004 -38.6
-70.690885 42.532588 -39.1
-70.689388 42.531396 -44.9
-70.687891 42.530202 -50.8
-70.686394 42.529007 -51.7
-70.684894 42.527810 -53.2
-70.683402 42.526565 -53.2
-70.681910 42.525321 -52.0
-70.680419 42.524074 -52.0
-70.679471 42.527957 -37.9
-70.680991 42.529207 -41.2
-70.682513 42.530457 -46.4
-70.684035 42.531707 -46.7
-70.684541 42.532124 -44.9
-70.685555 42.532957 -48.8
-70.686607 42.533771 -41.8
-70.687132 42.534177 -44.6
-70.688707 42.535396 -40.0
-70.690285 42.536613 -42.7
-70.691860 42.537832 -44.3
-70.693438 42.539052 -42.7
-70.695013 42.540268 -37.8
-70.696628 42.541457 -28.0
-70.698242 42.542646 -22.2
-70.699856 42.543835 -22.8
-70.701470 42.545027 -18.8
-70.692563 42.542857 -38.3
-70.691007 42.541688 -35.9
-70.689452 42.540518 -43.2
-70.687894 42.539349 -43.5
-70.686335 42.538177 -45.0
-70.684841 42.536971 -43.2
-70.683346 42.535763 -42.0
-70.681852 42.534554 -38.0
-70.680355 42.533346 -46.6
-70.678885 42.532118 -42.9
-70.678394 42.531707 -41.7
-70.677413 42.530888 -48.1
-70.675941 42.529657 -51.5
-70.674469 42.528429 -51.7
-70.684441 42.531865 -47.1
-70.686657 42.532190 -48.0
-70.689616 42.532624 -23.8
-70.691096 42.532840 -39.7
-70.693316 42.533165 -48.9
-70.695535 42.533490 -48.0
-70.697752 42.533813 -46.5
-70.700970 42.536138 -42.2
-70.698846 42.535793 -42.5
-70.696724 42.535446 -46.5
-70.694602 42.535102 -47.4
-70.692477 42.534754 -45.5
-70.690335 42.534393 -33.6
-70.688694 42.534115 -28.3
-70.688194 42.534029 -39.7
-70.686766 42.533788 -41.5
-70.686052 42.533665 -46.1
-70.683910 42.533304 -41.8
-70.683385 42.534854 -40.3
-70.684091 42.534971 -37.6
-70.685507 42.535210 -44.0
-70.687632 42.535568 -41.5
-70.689757 42.535927 -40.6
-70.691880 42.536282 -44.0
-70.694082 42.536543 -43.6
-70.695552 42.536715 -38.2
-70.696285 42.536802 -40.6
-70.698486 42.537060 -40.2
-70.704753 42.538893 -34.4
-70.705858 42.538996 -28.6
-70.706967 42.539102 -34.1
-70.709181 42.539313 -39.0
-70.711397 42.539521 -37.5
-70.713611 42.539732 -37.2
-70.715828 42.539943 -36.9
-70.715981 42.541835 -37.2
-70.713828 42.541563 -37.1
-70.711675 42.541290 -37.7
-70.709522 42.541018 -38.3
-70.707370 42.540743 -36.8
-70.705217 42.540471 -29.2
-70.703061 42.540196 -34.4
-70.702147 42.541671 -27.9
-70.702850 42.541743 -26.1
-70.704261 42.541882 -31.9
-70.706381 42.542093 -29.5
-70.707086 42.542165 -30.4
-70.708500 42.542304 -38.3
-70.710620 42.542515 -38.0
-70.709864 42.545752 -32.8
-70.708750 42.545607 -28.5
-70.707636 42.545463 -33.1
-70.705406 42.545171 -24.5
-70.703178 42.544879 -22.4
-70.700947 42.544590 -17.7
-70.698722 42.544302 -20.2
-70.696497 42.544013 -22.9
-70.694271 42.543721 -35.2
-70.695964 42.545543 -30.0
-70.698120 42.545818 -23.5
-70.700275 42.546093 -21.4
-70.702433 42.546368 -24.7
-70.704592 42.546643 -28.4
-70.703208 42.543310 -21.9
-70.701083 42.543018 -21.6
-70.700731 42.542968 -18.9
-70.698961 42.542727 -23.8
-70.698253 42.542627 -22.6
-70.696839 42.542432 -25.9
-70.694713 42.542140 -34.2
-70.685980 42.541779 -34.5
-70.683791 42.541407 -31.5
-70.682330 42.541157 -24.4
-70.681599 42.541032 -34.2
-70.679407 42.540657 -40.6
-70.677219 42.540285 -39.9
-70.675066 42.539890 -48.2
-70.672913 42.539499 -47.5
-70.670757 42.539107 -50.4
-70.669846 42.540668 -43.0
-70.670896 42.540835 -39.9
-70.671949 42.541002 -41.1
-70.674055 42.541335 -30.8
-70.676157 42.541668 -46.9
-70.678263 42.542002 -43.9
-70.680446 42.542388 -36.9
-70.682630 42.542777 -30.8
-70.684813 42.543168 -39.6
-70.684938 42.545002 -41.1
-70.682855 42.544607 -41.4
-70.680771 42.544210 -41.7
-70.679727 42.544013 -40.8
-70.678685 42.543815 -42.0
-70.676602 42.543418 -43.2
-70.674516 42.543024 -40.5
-70.673474 42.542827 -39.0
-70.672432 42.542627 -42.0
-70.744211 42.501035 -43.5
-70.742745 42.499868 -43.2
-70.741275 42.498702 -43.3
-70.739806 42.497532 -43.3
-70.738333 42.496304 -44.2
-70.736861 42.495077 -46.0
-70.735386 42.493850 -47.9
-70.733911 42.492619 -49.4
-70.732483 42.491366 -50.0
-70.731056 42.490111 -48.5
-70.729628 42.488855 -50.3
-70.728197 42.487600 -51.8
-70.726789 42.486355 -52.1
-70.725380 42.485108 -50.9
-70.723971 42.483861 -50.3
-70.722563 42.482614 -51.2
-70.721257 42.481286 -51.3
-70.719952 42.479958 -50.7
-70.718646 42.478630 -52.5
-70.717338 42.477300 -53.4
-70.716074 42.475953 -53.4
-70.714810 42.474605 -50.0
-70.713546 42.473255 -44.0
-70.712280 42.471905 -42.7
-70.711055 42.470539 -42.1
-70.709830 42.469169 -43.6
-70.708602 42.467800 -44.0
-70.707374 42.466430 -45.8
-70.706249 42.465030 -48.6
-70.705124 42.463630 -50.1
-70.703999 42.462230 -53.5
-70.702871 42.460830 -55.0
-70.701777 42.459411 -56.2
-70.700680 42.457989 -57.1
-70.699584 42.456566 -55.9
-70.698487 42.455144 -54.4
-70.697965 42.454433 -50.0
-70.697443 42.453722 -54.4
-70.696395 42.452297 -53.5
-70.695348 42.450872 -51.6
-70.694301 42.449451 -51.9
-70.693365 42.447992 -50.1
-70.692431 42.446534 -44.3
-70.691962 42.445804 -41.0
-70.691495 42.445076 -44.4
-70.690562 42.443617 -45.0
-70.689626 42.442159 -31.2
-70.688693 42.440704 -45.3
-70.692626 42.439809 -45.0
-70.693579 42.441326 -51.1
-70.694534 42.442842 -49.9
-70.695490 42.444362 -50.8
-70.696509 42.445815 -53.9
-70.697531 42.447270 -55.4
-70.698554 42.448726 -56.3
-70.699573 42.450178 -55.7
-70.700665 42.451658 -55.7
-70.701754 42.453139 -54.2
-70.702846 42.454616 -56.0
-70.703938 42.456097 -56.9
-70.705102 42.457514 -55.1
-70.706269 42.458930 -55.7
-70.707435 42.460350 -55.1
-70.708602 42.461769 -53.9
-70.709796 42.463178 -53.9
-70.710994 42.464586 -50.9
-70.712188 42.465994 -48.3
-70.713385 42.467405 -46.3
-70.714635 42.468766 -46.0
-70.715888 42.470130 -47.2
-70.717141 42.471494 -47.2
-70.718394 42.472861 -50.6
-70.719680 42.474186 -51.5
-70.720969 42.475511 -46.9
-70.722257 42.476836 -44.5
-70.723549 42.478161 -42.4
-70.724880 42.479472 -43.0
-70.726213 42.480786 -44.2
-70.727546 42.482100 -43.3
-70.728881 42.483416 -47.3
-70.730306 42.484669 -51.6
-70.731733 42.485925 -50.7
-70.733161 42.487180 -49.7
-70.734592 42.488436 -47.6
-70.736025 42.489700 -48.5
-70.737461 42.490964 -48.8
-70.738897 42.492228 -48.2
-70.740333 42.493493 -47.3
-70.741886 42.494679 -45.2
-70.743442 42.495868 -44.0
-70.744997 42.497054 -44.6
-70.746556 42.498243 -40.4
-70.747342 42.498832 -38.5
-70.748128 42.499421 -40.1
-70.749703 42.500602 -39.7
-70.751278 42.501779 -38.5
-70.752850 42.502960 -34.2
-70.757870 42.502374 -34.8
-70.757122 42.501793 -38.0
-70.756370 42.501213 -36.8
-70.754864 42.500054 -31.8
-70.753858 42.499282 -34.0
-70.753358 42.498896 -32.1
-70.751853 42.497738 -30.9
-70.750333 42.496571 -33.3
-70.748817 42.495404 -35.2
-70.747300 42.494238 -38.0
-70.745781 42.493068 -44.1
-70.744306 42.491853 -44.7
-70.742828 42.490633 -45.9
-70.741350 42.489414 -47.1
-70.739870 42.488194 -45.6
-70.738475 42.486933 -42.2
-70.737081 42.485669 -45.6
-70.735686 42.484408 -49.6
-70.734289 42.483144 -50.5
-70.732903 42.481864 -48.0
-70.732208 42.481225 -45.6
-70.731514 42.480583 -49.0
-70.730125 42.479303 -50.8
-70.728738 42.478019 -50.8
-70.727432 42.476697 -48.4
-70.726127 42.475375 -49.0
-70.724821 42.474053 -49.9
-70.723516 42.472728 -52.7
-70.722219 42.471361 -53.3
-70.720921 42.469994 -49.9
-70.719624 42.468625 -49.0
-70.718324 42.467255 -48.1
-70.717180 42.465905 -47.8
-70.716032 42.464553 -49.3
-70.714885 42.463200 -52.1
-70.713735 42.461844 -51.8
-70.713149 42.461161 -53.9
-70.712560 42.460475 -51.8
-70.711382 42.459103 -55.1
-70.710205 42.457733 -54.8
-70.709027 42.456361 -56.3
-70.707999 42.454950 -56.3
-70.706974 42.453536 -53.3
-70.705949 42.452122 -55.8
-70.704924 42.450705 -56.4
-70.703887 42.449311 -56.7
-70.702848 42.447917 -57.0
-70.701812 42.446523 -57.3
-70.700773 42.445126 -58.9
-70.699856 42.443642 -59.2
-70.698937 42.442159 -55.2
-70.698479 42.441417 -54.6
-70.698018 42.440673 -57.6
-70.701365 42.438926 -56.4
-70.702387 42.440462 -55.5
-70.703409 42.442001 -57.6
-70.704434 42.443540 -58.5
-70.705459 42.445079 -57.9
-70.706555 42.446554 -57.3
-70.707652 42.448028 -55.5
-70.708746 42.449505 -52.1
-70.709844 42.450983 -50.9
-70.710991 42.452433 -51.8
-70.712138 42.453886 -54.6
-70.713285 42.455339 -54.9
-70.714435 42.456794 -54.6
-70.715571 42.458241 -54.3
-70.716710 42.459689 -53.7
-70.717849 42.461136 -53.4
-70.718988 42.462586 -52.2
-70.720249 42.463955 -53.1
-70.721513 42.465328 -51.6
-70.722777 42.466700 -51.0
-70.723410 42.467386 -50.0
-70.724044 42.468072 -51.6
-70.725352 42.469408 -52.2
-70.726663 42.470747 -52.8
-70.727974 42.472086 -51.3
-70.728630 42.472755 -50.0
-70.729285 42.473428 -51.0
-70.730660 42.474755 -49.7
-70.732036 42.476086 -51.6
-70.733411 42.477416 -51.0
-70.734786 42.478750 -50.7
-70.736206 42.480044 -51.0
-70.737628 42.481339 -50.7
-70.739047 42.482633 -50.7
-70.740470 42.483930 -50.4
-70.741950 42.485208 -50.0
-70.743431 42.486489 -49.4
-70.744911 42.487769 -47.9
-70.746395 42.489050 -45.8
-70.747942 42.490264 -44.3
-70.749489 42.491477 -44.0
-70.751039 42.492690 -44.3
-70.752589 42.493907 -42.4
-70.754211 42.495090 -32.7
-70.755833 42.496277 -33.9
-70.757456 42.497463 -35.1
-70.759081 42.498649 -37.0
-70.760704 42.499835 -39.4
-70.762329 42.501021 -37.3
-70.763929 42.497890 -39.7
-70.762373 42.496721 -41.0
-70.760817 42.495549 -41.3
-70.759258 42.494377 -41.6
-70.757700 42.493188 -39.7
-70.756142 42.491999 -41.3
-70.754583 42.490807 -44.0
-70.753025 42.489616 -45.5
-70.751508 42.488408 -46.1
-70.749989 42.487200 -46.8
-70.748470 42.485991 -48.0
-70.746950 42.484783 -48.6
-70.745531 42.483516 -47.7
-70.744108 42.482250 -47.7
-70.742686 42.480983 -48.3
-70.741261 42.479714 -48.9
-70.739903 42.478414 -48.6
-70.738542 42.477114 -48.3
-70.737181 42.475814 -48.9
-70.735817 42.474514 -49.5
-70.734520 42.473194 -51.6
-70.733222 42.471875 -52.2
-70.731921 42.470555 -52.2
-70.730621 42.469233 -52.2
-70.729363 42.467880 -51.9
-70.728105 42.466525 -50.4
-70.726844 42.465172 -52.2
-70.725582 42.463816 -52.5
-70.724346 42.462469 -52.9
-70.723107 42.461122 -53.2
-70.721871 42.459772 -53.2
-70.720632 42.458422 -53.5
-70.719513 42.457022 -53.8
-70.718391 42.455619 -52.5
-70.717269 42.454216 -52.5
-70.716146 42.452814 -49.4
-70.715055 42.451397 -43.3
-70.714507 42.450689 -41.2
-70.713963 42.449980 -43.6
-70.712869 42.448561 -50.0
-70.711777 42.447144 -53.7
-70.710780 42.445701 -54.9
-70.709782 42.444256 -56.1
-70.708785 42.442812 -56.8
-70.707788 42.441367 -56.1
-70.706790 42.439923 -51.6
-70.705793 42.438479 -53.7
-70.710980 42.439165 -56.8
-70.712030 42.440681 -56.4
-70.713080 42.442198 -56.1
-70.714132 42.443717 -55.8
-70.715185 42.445237 -55.8
-70.716316 42.446719 -55.2
-70.717446 42.448203 -53.1
-70.718577 42.449686 -48.8
-70.719710 42.451169 -51.9
-70.719074 42.450403 -49.1
-70.720260 42.451866 -52.8
-70.721449 42.453330 -52.8
-70.722635 42.454797 -52.8
-70.723824 42.456264 -53.1
-70.725060 42.457691 -52.8
-70.726299 42.459122 -52.8
-70.727535 42.460553 -52.5
-70.728774 42.461986 -49.7
-70.730071 42.463372 -49.7
-70.731369 42.464758 -49.4
-70.732666 42.466144 -51.6
-70.733966 42.467533 -51.6
-70.735328 42.468889 -51.9
-70.736692 42.470244 -51.6
-70.738053 42.471600 -51.0
-70.739417 42.472958 -50.0
-70.740800 42.474264 -48.2
-70.741492 42.474916 -44.9
-70.742183 42.475569 -47.9
-70.743570 42.476875 -48.2
-70.744953 42.478183 -47.6
-70.746439 42.479425 -44.6
-70.747925 42.480669 -45.8
-70.748420 42.481086 -43.0
-70.749411 42.481914 -47.3
-70.750897 42.483161 -47.0
-70.752414 42.484408 -46.1
-70.753933 42.485655 -44.9
-70.755453 42.486903 -42.7
-70.756972 42.488153 -41.5
-70.758572 42.489347 -40.1
-70.760172 42.490543 -38.5
-70.761775 42.491738 -37.9
-70.763376 42.492935 -37.6
-70.764979 42.494129 -37.6
-70.766582 42.495327 -37.2
-70.768971 42.492910 -36.4
-70.767443 42.491715 -36.7
-70.765912 42.490518 -37.3
-70.764381 42.489321 -37.9
-70.762850 42.488125 -38.8
-70.761306 42.486922 -39.4
-70.759758 42.485716 -40.4
-70.758211 42.484511 -41.3
-70.756661 42.483305 -42.2
-70.755203 42.482058 -44.0
-70.753745 42.480808 -45.5
-70.752283 42.479558 -46.1
-70.750822 42.478308 -46.1
-70.749397 42.477033 -46.4
-70.747972 42.475755 -47.6
-70.746547 42.474478 -48.5
-70.745122 42.473200 -48.8
-70.743770 42.471894 -47.0
-70.742417 42.470589 -49.1
-70.741064 42.469280 -50.0
-70.739708 42.467972 -50.4
-70.738408 42.466625 -50.4
-70.737108 42.465278 -49.4
-70.735807 42.463928 -49.7
-70.734505 42.462578 -49.7
-70.733277 42.461197 -47.0
-70.732046 42.459816 -49.7
-70.730816 42.458436 -52.2
-70.729582 42.457053 -51.9
-70.728405 42.455650 -52.1
-70.727224 42.454244 -51.5
-70.726044 42.452841 -50.9
-70.724863 42.451436 -50.6
-70.723766 42.450011 -50.9
-70.722669 42.448586 -50.9
-70.721569 42.447161 -53.9
-70.720469 42.445733 -55.2
-70.719430 42.444284 -55.5
-70.718391 42.442831 -55.8
-70.717349 42.441379 -55.8
-70.716307 42.439926 -55.5
-70.720524 42.439192 -54.6
-70.721585 42.440692 -54.3
-70.722649 42.442192 -54.2
-70.723716 42.443692 -54.2
-70.724849 42.445178 -53.3
-70.725985 42.446666 -50.5
-70.727121 42.448155 -50.2
-70.728260 42.449644 -50.8
-70.729480 42.451091 -50.8
-70.730702 42.452539 -50.2
-70.731924 42.453989 -49.9
-70.733146 42.455439 -46.9
-70.734405 42.456850 -47.5
-70.735663 42.458264 -49.6
-70.736921 42.459678 -49.0
-70.738183 42.461094 -47.5
-70.739536 42.462469 -45.4
-70.740889 42.463844 -43.8
-70.742242 42.465219 -45.6
-70.743597 42.466597 -47.7
-70.744906 42.467947 -47.7
-70.746217 42.469297 -46.8
-70.747528 42.470647 -47.7
-70.748842 42.471997 -47.4
-70.750383 42.473294 -47.1
-70.751925 42.474591 -46.2
-70.753467 42.475891 -44.7
-70.755011 42.477191 -42.9
-70.756525 42.478458 -42.2
-70.758042 42.479725 -41.6
-70.759558 42.480991 -41.3
-70.761075 42.482258 -40.4
-70.762664 42.483480 -39.7
-70.764256 42.484703 -39.1
-70.765847 42.485928 -38.8
-70.767440 42.487153 -37.9
-70.769109 42.488343 -37.3
-70.770782 42.489538 -36.7
-70.772454 42.490732 -35.7
-70.774126 42.491927 -34.8
-70.775801 42.493121 -34.2
-70.777415 42.489932 -34.2
-70.775815 42.488765 -35.1
-70.774215 42.487599 -36.0
-70.772612 42.486433 -36.6
-70.771009 42.485266 -37.6
-70.769451 42.484072 -37.9
-70.767893 42.482875 -38.5
-70.766333 42.481680 -39.1
-70.764775 42.480483 -39.7
-70.763286 42.479233 -40.6
-70.761797 42.477983 -40.9
-70.760308 42.476733 -41.2
-70.758817 42.475483 -42.1
-70.757342 42.474219 -43.3
-70.755864 42.472955 -44.9
-70.754386 42.471689 -45.7
-70.752908 42.470422 -46.0
-70.751539 42.469100 -45.7
-70.750167 42.467778 -43.9
-70.748797 42.466453 -47.9
-70.747425 42.465128 -46.9
-70.746108 42.463780 -42.7
-70.745447 42.463105 -41.8
-70.744789 42.462430 -43.6
-70.743470 42.461080 -44.2
-70.742150 42.459733 -45.7
-70.740906 42.458347 -46.6
-70.739658 42.456961 -49.4
-70.738410 42.455575 -49.7
-70.737163 42.454186 -50.0
-70.735980 42.452791 -49.4
-70.734796 42.451397 -49.1
-70.733613 42.450003 -49.3
-70.732430 42.448605 -49.6
-70.731341 42.447164 -48.7
-70.730252 42.445722 -49.9
-70.729160 42.444280 -51.1
-70.728071 42.442840 -51.8
-70.726980 42.441398 -49.6
-70.725888 42.439954 -46.6
-70.729010 42.437962 -43.8
-70.730127 42.439429 -47.2
-70.731244 42.440898 -48.7
-70.732360 42.442367 -49.6
-70.733480 42.443839 -49.0
-70.734680 42.445305 -48.3
-70.735880 42.446772 -48.6
-70.737082 42.448239 -48.6
-70.738285 42.449708 -49.3
-70.739530 42.451128 -48.6
-70.740774 42.452550 -44.4
-70.741397 42.453261 -40.1
-70.741606 42.453497 -43.5
-70.742020 42.453972 -41.0
-70.742642 42.454683 -39.8
-70.743264 42.455391 -40.7
-70.744583 42.456786 -41.3
-70.745903 42.458178 -43.2
-70.747222 42.459569 -44.1
-70.748545 42.460961 -46.2
-70.749931 42.462308 -45.5
-70.751320 42.463658 -47.4
-70.752708 42.465008 -47.1
-70.754100 42.466358 -41.9
-70.755517 42.467675 -44.0
-70.756936 42.468991 -43.7
-70.758356 42.470308 -44.6
-70.759778 42.471625 -44.3
-70.761295 42.472908 -43.4
-70.762814 42.474191 -43.1
-70.764333 42.475475 -42.8
-70.765853 42.476761 -42.2
-70.767389 42.478003 -41.3
-70.768926 42.479244 -40.1
-70.770462 42.480486 -39.1
-70.772001 42.481728 -38.5
-70.773643 42.482914 -37.9
-70.775287 42.484103 -37.6
-70.776932 42.485291 -36.6
-70.778576 42.486479 -35.4
-70.780223 42.487671 -34.7
-70.782040 42.484678 -35.4
-70.780476 42.483486 -36.3
-70.778912 42.482294 -36.9
-70.777346 42.481103 -37.6
-70.775801 42.479911 -38.1
-70.774257 42.478716 -39.0
-70.772712 42.477522 -39.9
-70.771165 42.476325 -40.8
-70.769656 42.475089 -41.5
-70.768145 42.473850 -42.1
-70.766633 42.472611 -42.4
