-70.785431 42.436830 -39.5
-70.787114 42.436766 -41.8
-70.788807 42.436647 -42.2
-70.790501 42.436528 -42.2
-70.792196 42.436408 -43.3
-70.793890 42.436289 -40.9
-70.794737 42.436228 -38.4
-70.795582 42.436169 -42.7
-70.797276 42.436008 -42.7
-70.798968 42.435847 -42.4
-70.800659 42.435686 -42.4
-70.802351 42.435525 -42.7
-70.804043 42.435364 -42.4
-70.805734 42.435205 -42.4
-70.807418 42.434975 -42.1
-70.809098 42.434744 -42.1
-70.810779 42.434516 -41.2
-70.812462 42.434286 -41.5
-70.814143 42.434055 -41.2
-70.815826 42.433825 -40.9
-70.817490 42.433566 -40.9
-70.819154 42.433308 -40.4
-70.820818 42.433047 -40.0
-70.822482 42.432789 -39.5
-70.824146 42.432528 -38.7
-70.825812 42.432266 -38.1
-70.827462 42.431941 -37.8
-70.829112 42.431616 -37.5
-70.830766 42.431289 -37.2
-70.832416 42.430964 -36.5
-70.834069 42.430636 -35.9
-70.835722 42.430308 -35.6
-70.837352 42.429936 -35.3
-70.838983 42.429561 -35.0
-70.840616 42.429186 -34.4
-70.842247 42.428811 -34.1
-70.843880 42.428436 -33.6
-70.845513 42.428061 -33.3
-70.847135 42.427650 -33.0
-70.848758 42.427236 -32.7
-70.850380 42.426825 -32.4
-70.852005 42.426411 -32.1
-70.853627 42.426000 -31.8
-70.855252 42.425586 -31.2
-70.856849 42.425111 -31.2
-70.858447 42.424636 -30.8
-70.860044 42.424158 -30.7
-70.861641 42.423683 -30.5
-70.863238 42.423205 -30.2
-70.864838 42.422728 -29.9
-70.866397 42.422214 -29.9
-70.867958 42.421700 -29.3
-70.869516 42.421186 -29.3
-70.871077 42.420669 -28.7
-70.872638 42.420155 -28.4
-70.874199 42.419639 -27.8
-70.875739 42.419064 -27.3
-70.877278 42.418489 -26.3
-70.878817 42.417911 -23.8
-70.880356 42.417336 -24.1
-70.881895 42.416758 -27.2
-70.883436 42.416180 -27.2
-70.864747 42.425303 -30.3
-70.863130 42.425772 -30.6
-70.861510 42.426244 -30.6
-70.859891 42.426716 -30.0
-70.858272 42.427189 -28.8
-70.856652 42.427661 -30.3
-70.855030 42.428133 -30.9
-70.855769 42.429664 -30.9
-70.857299 42.429211 -30.6
-70.858833 42.428755 -30.3
-70.860366 42.428303 -27.9
-70.861899 42.427847 -26.9
-70.863433 42.427394 -30.4
-70.864966 42.426939 -30.4
-70.866499 42.426483 -29.9
-70.872231 42.431333 -26.7
-70.873742 42.430844 -25.6
-70.875256 42.430355 -21.0
-70.876014 42.430111 -19.4
-70.876770 42.429866 -23.5
-70.878284 42.429375 -27.8
-70.879798 42.428886 -27.5
-70.881311 42.428394 -26.6
-70.881450 42.430130 -27.2
-70.879895 42.430644 -28.2
-70.878336 42.431158 -21.0
-70.876781 42.431675 -19.8
-70.875223 42.432189 -24.4
-70.873664 42.432705 -26.3
-70.872106 42.433222 -26.9
-70.884934 42.434011 -24.4
-70.883403 42.434541 -25.7
-70.881870 42.435075 -23.3
-70.881103 42.435341 -20.3
-70.880336 42.435605 -25.0
-70.878803 42.436139 -25.4
-70.877270 42.436672 -25.7
-70.875736 42.437205 -26.0
-70.874092 42.437711 -26.3
-70.872445 42.438219 -26.9
-70.870798 42.438728 -27.6
-70.869148 42.439236 -27.9
-70.868345 42.437978 -28.3
-70.869842 42.437469 -28.0
-70.871339 42.436961 -27.4
-70.872836 42.436453 -27.1
-70.874334 42.435944 -26.5
-70.875831 42.435436 -25.5
-70.877331 42.434925 -25.2
-70.878384 42.434583 -22.4
-70.878911 42.434414 -23.3
-70.880495 42.433900 -25.8
-70.882078 42.433386 -22.1
-70.882870 42.433128 -21.5
-70.883659 42.432872 -24.3
-70.883873 42.414205 -27.4
-70.882323 42.414800 -27.7
-70.880773 42.415394 -27.7
-70.879223 42.415989 -27.7
-70.877670 42.416586 -27.4
-70.876119 42.417180 -27.4
-70.874566 42.417778 -27.7
-70.872927 42.418319 -28.3
-70.871285 42.418864 -29.0
-70.869644 42.419408 -29.3
-70.868002 42.419953 -29.6
-70.866360 42.420497 -29.9
-70.864719 42.421041 -30.2
-70.863041 42.421547 -30.5
-70.861360 42.422053 -30.8
-70.859683 42.422558 -30.8
-70.858002 42.423066 -31.2
-70.856322 42.423572 -31.2
-70.854641 42.424080 -31.5
-70.852927 42.424525 -31.8
-70.851213 42.424972 -32.1
-70.849497 42.425416 -32.7
-70.847783 42.425864 -33.0
-70.846066 42.426311 -33.3
-70.844349 42.426758 -33.6
-70.842610 42.427150 -34.0
-70.840872 42.427541 -34.3
-70.839133 42.427933 -34.6
-70.837391 42.428325 -35.2
-70.835652 42.428716 -35.5
-70.833910 42.429111 -36.1
-70.832141 42.429416 -36.1
-70.830368 42.429725 -36.7
-70.828598 42.430033 -37.3
-70.826826 42.430341 -37.6
-70.825054 42.430650 -38.3
-70.823282 42.430958 -38.8
-70.821548 42.431239 -39.4
-70.819812 42.431522 -40.0
-70.818076 42.431803 -40.6
-70.816340 42.432086 -40.9
-70.814604 42.432369 -40.9
-70.812865 42.432653 -41.2
-70.811079 42.432922 -41.5
-70.809290 42.433194 -41.8
-70.807501 42.433464 -42.2
-70.805712 42.433736 -42.2
-70.803923 42.434005 -42.3
-70.802132 42.434278 -42.5
-70.800340 42.434369 -40.9
-70.799443 42.434416 -39.1
-70.798548 42.434464 -41.2
-70.796754 42.434558 -41.8
-70.794962 42.434653 -42.5
-70.793168 42.434747 -41.5
-70.792271 42.434794 -40.6
-70.791373 42.434841 -42.2
-70.789568 42.434941 -42.2
-70.787761 42.435044 -41.8
-70.785953 42.435147 -40.6
-70.784147 42.435250 -39.4
-70.782339 42.435353 -38.6
-70.780531 42.435455 -42.5
-70.778689 42.435494 -44.0
-70.776845 42.435536 -45.0
-70.775000 42.435575 -45.3
-70.773156 42.435616 -45.5
-70.771311 42.435658 -45.6
-70.769467 42.435700 -45.6
-70.767636 42.435669 -44.7
-70.765803 42.435637 -39.5
-70.764886 42.435620 -37.4
-70.763972 42.435606 -38.3
-70.762139 42.435573 -40.7
-70.760306 42.435540 -42.2
-70.758472 42.435506 -39.8
-70.755928 42.432295 -41.6
-70.757517 42.432348 -40.0
-70.759106 42.432401 -36.9
-70.760697 42.432454 -36.6
-70.761492 42.432481 -35.7
-70.762286 42.432509 -37.8
-70.763878 42.432562 -37.8
-70.765467 42.432615 -40.9
-70.767136 42.432604 -39.7
-70.768803 42.432590 -40.0
-70.770472 42.432576 -43.5
-70.772139 42.432559 -43.3
-70.773808 42.432545 -40.9
-70.775478 42.432529 -37.5
-70.777158 42.432465 -39.1
-70.778839 42.432401 -41.5
-70.780520 42.432334 -44.3
-70.782203 42.432269 -44.3
-70.783883 42.432203 -44.3
-70.785567 42.432136 -43.6
-70.787233 42.432039 -43.1
-70.788900 42.431939 -43.1
-70.790568 42.431839 -42.8
-70.792234 42.431739 -41.6
-70.793901 42.431639 -42.8
-70.795568 42.431539 -42.8
-70.797234 42.431361 -42.5
-70.798904 42.431183 -41.9
-70.799740 42.431094 -41.0
-70.800573 42.431005 -42.5
-70.802243 42.430828 -42.8
-70.803912 42.430650 -42.5
-70.805582 42.430469 -42.5
-70.807243 42.430239 -42.2
-70.808904 42.430008 -41.6
-70.810565 42.429775 -41.3
-70.812226 42.429544 -40.5
-70.813887 42.429311 -39.1
-70.815551 42.429078 -34.2
-70.816101 42.428989 -32.7
-70.817204 42.428805 -34.5
-70.818859 42.428533 -35.1
-70.820515 42.428261 -37.3
-70.822171 42.427989 -37.9
-70.823826 42.427716 -37.6
-70.825482 42.427441 -37.0
-70.827134 42.427116 -36.7
-70.828790 42.426791 -36.4
-70.830446 42.426466 -36.1
-70.832102 42.426141 -35.2
-70.833758 42.425816 -34.9
-70.835416 42.425489 -34.6
-70.837022 42.425122 -34.4
-70.838630 42.424753 -34.0
-70.840235 42.424383 -34.0
-70.841844 42.424014 -33.5
-70.843452 42.423644 -33.0
-70.845060 42.423275 -32.7
-70.846660 42.422844 -32.4
-70.848260 42.422414 -31.8
-70.849860 42.421983 -31.8
-70.851460 42.421550 -31.5
-70.853060 42.421119 -31.2
-70.854663 42.420686 -30.6
-70.856235 42.420211 -30.6
-70.857285 42.419894 -29.4
-70.857808 42.419736 -30.0
-70.859383 42.419258 -30.6
-70.860955 42.418783 -30.6
-70.862530 42.418305 -30.6
-70.864102 42.417830 -30.3
-70.865638 42.417297 -30.1
-70.867172 42.416766 -29.8
-70.868708 42.416233 -29.4
-70.870241 42.415703 -29.1
-70.871777 42.415169 -28.5
-70.873313 42.414636 -26.9
-70.874819 42.414072 -23.6
-70.876324 42.413508 -27.6
-70.877830 42.412941 -28.2
-70.879336 42.412378 -28.5
-70.880842 42.411811 -28.4
-70.882348 42.411247 -28.2
-70.883856 42.410680 -28.1
-70.882359 42.413030 -27.9
-70.880739 42.413650 -28.1
-70.879123 42.414266 -27.9
-70.877506 42.414883 -27.9
-70.875888 42.415500 -28.0
-70.875080 42.415808 -27.1
-70.874272 42.416116 -28.0
-70.872627 42.416683 -28.3
-70.870983 42.417250 -28.9
-70.869338 42.417816 -29.2
-70.867694 42.418383 -29.8
-70.866049 42.418950 -29.8
-70.864402 42.419519 -30.1
-70.862722 42.420022 -30.4
-70.861041 42.420528 -30.7
-70.859360 42.421033 -31.0
-70.857677 42.421539 -31.0
-70.855997 42.422044 -31.3
-70.854313 42.422550 -31.3
-70.852599 42.422978 -31.6
-70.850883 42.423405 -31.9
-70.849166 42.423833 -32.2
-70.847449 42.424264 -32.4
-70.845733 42.424691 -33.1
-70.844016 42.425122 -33.3
-70.842288 42.425500 -33.6
-70.840558 42.425878 -33.9
-70.838830 42.426255 -34.2
-70.837099 42.426633 -34.8
-70.835372 42.427011 -35.4
-70.833641 42.427391 -35.4
-70.831899 42.427753 -35.7
-70.830154 42.428116 -36.2
-70.828412 42.428480 -36.6
-70.826668 42.428844 -37.2
-70.824923 42.429208 -37.9
-70.823179 42.429575 -38.2
-70.821384 42.429830 -38.9
-70.819587 42.430089 -39.5
-70.817790 42.430344 -40.1
-70.815993 42.430603 -39.7
-70.814196 42.430861 -40.7
-70.812396 42.431119 -41.3
-70.810615 42.431325 -41.6
-70.808834 42.431530 -41.9
-70.807054 42.431736 -41.9
-70.805273 42.431941 -42.2
-70.803493 42.432147 -41.9
-70.801709 42.432355 -42.2
-70.799898 42.432514 -41.6
-70.798087 42.432672 -41.6
-70.796276 42.432830 -42.2
-70.794465 42.432989 -41.8
-70.793559 42.433069 -40.8
-70.792654 42.433147 -41.7
-70.790840 42.433308 -41.1
-70.789026 42.433400 -42.6
-70.787211 42.433494 -43.2
-70.785397 42.433589 -43.5
-70.783583 42.433683 -43.5
-70.781770 42.433778 -42.0
-70.779953 42.433875 -43.5
-70.778092 42.433900 -43.5
-70.776228 42.433928 -44.4
-70.774364 42.433955 -45.0
-70.772500 42.433984 -45.3
-70.770636 42.434012 -45.7
-70.768770 42.434040 -45.4
-70.766992 42.434040 -41.8
-70.765211 42.434040 -38.6
-70.763431 42.434040 -35.6
-70.761650 42.434037 -36.8
-70.759870 42.434037 -39.6
-70.758089 42.434034 -41.1
-70.755764 42.433881 -38.3
-70.753436 42.433729 -38.5
-70.751108 42.433576 -41.1
-70.748778 42.433420 -42.9
-70.746424 42.433304 -48.1
-70.744071 42.433184 -48.4
-70.741719 42.433065 -48.7
-70.739363 42.432945 -47.8
-70.737030 42.432676 -49.4
-70.734694 42.432404 -50.6
-70.732357 42.432131 -51.9
-70.730019 42.431856 -53.0
-70.727682 42.431562 -53.3
-70.725344 42.431265 -52.4
-70.723005 42.430970 -50.0
-70.720663 42.430673 -48.5
-70.718344 42.430298 -47.0
-70.716021 42.429923 -49.1
-70.713702 42.429548 -49.4
-70.711379 42.429173 -50.3
-70.709115 42.428745 -52.2
-70.706851 42.428315 -48.5
-70.704587 42.427887 -50.4
-70.702320 42.427456 -51.0
-70.700079 42.426959 -49.5
-70.698959 42.426709 -47.0
-70.697837 42.426459 -48.9
-70.695595 42.425959 -54.1
-70.693354 42.425459 -58.7
-70.691131 42.424870 -59.9
-70.688909 42.424279 -61.0
-70.686687 42.423687 -62.0
-70.684462 42.423095 -62.9
-70.682240 42.422495 -63.6
-70.680018 42.421895 -64.2
-70.677794 42.421295 -64.6
-70.675569 42.420695 -65.2
-70.673417 42.419981 -66.4
-70.671261 42.419267 -67.4
-70.669108 42.418554 -68.0
-70.666953 42.417840 -68.9
-70.664797 42.417123 -69.5
-70.666303 42.414031 -69.2
-70.668228 42.414715 -68.0
-70.670155 42.415398 -64.3
-70.672086 42.416084 -64.9
-70.674097 42.416695 -65.3
-70.676111 42.417309 -65.3
-70.678125 42.417923 -64.7
-70.680140 42.418537 -64.1
-70.684170 42.419767 -62.5
-70.686268 42.420320 -60.6
-70.688365 42.420876 -58.3
-70.690462 42.421431 -54.5
-70.692562 42.421987 -51.2
-70.694673 42.422470 -51.2
-70.696787 42.422954 -50.9
-70.698901 42.423437 -50.0
-70.701015 42.423923 -49.4
-70.703129 42.424345 -49.7
-70.705243 42.424767 -50.6
-70.707359 42.425192 -50.7
-70.709476 42.425617 -50.4
-70.711620 42.425992 -50.0
-70.713769 42.426367 -52.4
-70.715913 42.426742 -53.6
-70.718060 42.427117 -53.2
-70.720238 42.427412 -51.9
-70.722419 42.427709 -52.2
-70.724599 42.428006 -52.2
-70.726782 42.428306 -51.6
-70.728966 42.428592 -49.3
-70.731149 42.428881 -48.1
-70.733332 42.429167 -49.4
-70.735519 42.429456 -49.4
-70.737271 42.429592 -48.7
-70.739024 42.429729 -47.9
-70.740777 42.429865 -47.1
-70.742530 42.430001 -46.1
-70.744282 42.430137 -46.5
-70.746035 42.430273 -46.8
-70.747702 42.430365 -46.6
-70.749369 42.430456 -46.8
-70.751036 42.430548 -46.5
-70.752703 42.430640 -46.1
-70.754370 42.430731 -43.6
-70.756033 42.430820 -40.6
-70.757714 42.430856 -39.4
-70.758556 42.430873 -37.5
-70.759395 42.430892 -39.0
-70.761075 42.430926 -39.7
-70.762756 42.430962 -41.5
-70.764436 42.430998 -41.8
-70.766114 42.431031 -40.9
-70.767767 42.431023 -39.4
-70.769420 42.431009 -38.5
-70.771072 42.430995 -37.6
-70.772725 42.430981 -35.7
-70.774378 42.430967 -36.0
-70.775206 42.430962 -35.1
-70.776033 42.430954 -35.7
-70.777700 42.430870 -40.2
-70.779370 42.430784 -42.8
-70.781036 42.430701 -44.5
-70.782706 42.430615 -44.3
-70.784375 42.430529 -44.0
-70.786045 42.430442 -40.7
-70.787100 42.430379 -35.1
-70.788158 42.430312 -36.6
-70.790273 42.430181 -37.9
-70.791332 42.430115 -36.4
-70.792390 42.430047 -38.5
-70.794507 42.429914 -41.3
-70.796687 42.429716 -41.6
-70.798868 42.429516 -42.6
-70.801048 42.429316 -42.6
-70.803232 42.429116 -42.2
-70.805421 42.428833 -41.6
-70.807609 42.428547 -41.0
-70.809801 42.428261 -39.1
-70.811993 42.427975 -37.0
-70.814165 42.427686 -31.5
-70.816337 42.427394 -33.3
-70.818509 42.427103 -34.9
-70.820684 42.426811 -36.1
-70.822846 42.426386 -35.6
-70.825009 42.425961 -36.9
-70.827173 42.425536 -36.5
-70.829337 42.425111 -35.4
-70.831446 42.424644 -34.5
-70.833555 42.424175 -33.7
-70.835666 42.423705 -33.3
-70.837777 42.423233 -33.3
-70.839905 42.422766 -33.0
-70.842033 42.422297 -32.7
-70.844160 42.421828 -32.3
-70.846291 42.421355 -31.7
-70.848344 42.420786 -31.1
-70.850399 42.420214 -30.9
-70.852452 42.419641 -28.8
-70.853480 42.419355 -31.2
-70.854508 42.419066 -29.1
-70.856574 42.418436 -30.3
-70.858644 42.417805 -30.3
-70.860713 42.417175 -30.3
-70.862783 42.416541 -28.6
-70.864788 42.415869 -29.9
-70.866794 42.415197 -29.6
-70.868799 42.414522 -29.1
-70.870808 42.413847 -28.5
-70.872763 42.413114 -28.2
-70.874719 42.412380 -28.5
-70.876677 42.411647 -28.2
-70.878635 42.410911 -28.2
-70.880564 42.410153 -28.2
-70.882495 42.409394 -27.6
-70.884428 42.408633 -27.6
-70.883209 42.407520 -26.3
-70.881186 42.408284 -26.9
-70.879160 42.409048 -27.9
-70.877135 42.409812 -28.2
-70.875110 42.410578 -27.9
-70.873002 42.411294 -25.4
-70.870894 42.412011 -26.6
-70.868783 42.412730 -23.3
-70.866672 42.413450 -26.5
-70.864560 42.414161 -28.9
-70.862447 42.414875 -28.6
-70.860333 42.415589 -29.8
-70.858216 42.416305 -30.1
-70.856097 42.416880 -29.8
-70.853977 42.417458 -29.8
-70.851858 42.418036 -30.7
-70.850797 42.418325 -28.6
-70.849735 42.418614 -29.8
-70.847522 42.419200 -30.4
-70.845308 42.419789 -31.3
-70.843094 42.420378 -31.9
-70.840877 42.420966 -32.2
-70.838697 42.421425 -32.6
-70.836513 42.421886 -32.2
-70.834330 42.422347 -32.6
-70.832146 42.422811 -32.6
-70.829959 42.423236 -33.2
-70.828865 42.423447 -31.9
-70.827771 42.423661 -34.4
-70.825582 42.424086 -35.7
-70.823390 42.424514 -36.6
-70.821171 42.424903 -36.9
-70.818951 42.425291 -36.9
-70.816732 42.425680 -36.6
-70.814509 42.426072 -32.0
-70.813376 42.426228 -28.7
-70.812240 42.426383 -30.2
-70.809968 42.426697 -33.9
-70.807698 42.427011 -37.6
-70.805426 42.427325 -40.4
-70.803184 42.427534 -41.6
-70.800943 42.427745 -42.3
-70.798698 42.427956 -42.5
-70.796454 42.428167 -42.5
-70.794659 42.428295 -42.8
-70.792862 42.428426 -39.1
-70.791065 42.428554 -34.5
-70.790164 42.428620 -32.9
-70.789267 42.428684 -33.9
-70.787470 42.428815 -37.9
-70.785672 42.428942 -41.0
-70.783922 42.429026 -43.7
-70.782172 42.429109 -43.1
-70.780425 42.429192 -41.3
-70.778675 42.429276 -38.9
-70.776925 42.429359 -38.5
-70.775175 42.429442 -37.2
-70.772928 42.429412 -34.8
-70.770681 42.429381 -29.9
-70.769556 42.429365 -29.4
-70.768433 42.429351 -30.5
-70.766186 42.429320 -32.6
-70.763881 42.429354 -38.2
-70.761575 42.429392 -42.2
-70.759272 42.429431 -41.0
-70.756967 42.429473 -36.6
-70.754642 42.429298 -41.0
-70.752317 42.429123 -45.2
-70.749988 42.428945 -47.4
-70.747660 42.428767 -48.0
-70.745355 42.428592 -46.2
-70.743046 42.428417 -43.6
-70.740738 42.428240 -39.1
-70.738430 42.428062 -43.7
-70.736127 42.427809 -46.2
-70.733824 42.427554 -44.3
-70.731521 42.427298 -37.9
-70.729219 42.427042 -43.7
-70.726913 42.426784 -49.7
-70.746480 42.426931 -48.4
-70.748319 42.427190 -47.8
-70.750160 42.427451 -45.7
-70.752003 42.427712 -41.3
-70.754120 42.427781 -37.9
-70.756239 42.427854 -35.5
-70.758358 42.427926 -39.2
-70.760478 42.427998 -40.1
-70.762686 42.427945 -39.8
-70.763792 42.427917 -42.3
-70.764897 42.427890 -32.7
-70.767108 42.427834 -30.9
-70.768214 42.427806 -26.0
-70.769320 42.427779 -28.2
-70.770372 42.427779 -31.2
-70.771428 42.427784 -33.1
-70.773539 42.427795 -34.9
-70.775650 42.427806 -32.1
-70.777764 42.427820 -33.4
-70.779953 42.427701 -37.7
-70.782142 42.427579 -39.9
-70.784333 42.427459 -38.3
-70.786525 42.427337 -33.7
-70.788686 42.427181 -30.3
-70.790850 42.427023 -40.2
-70.793015 42.426865 -44.6
-70.795182 42.426706 -41.5
-70.797373 42.426504 -39.6
-70.799565 42.426301 -41.7
-70.801759 42.426098 -41.9
-70.803954 42.425892 -41.1
-70.806093 42.425598 -36.8
-70.808232 42.425301 -29.4
-70.810373 42.425004 -26.6
-70.812515 42.424706 -30.7
-70.814673 42.424398 -35.6
-70.816832 42.424090 -37.0
-70.818990 42.423781 -36.2
-70.821148 42.423470 -36.5
-70.823282 42.423050 -36.2
-70.825418 42.422630 -35.3
-70.827554 42.422211 -34.1
-70.829693 42.421789 -33.0
-70.831829 42.421305 -32.5
-70.833968 42.420822 -32.0
-70.836108 42.420339 -31.8
-70.838247 42.419855 -31.3
-70.839299 42.419619 -30.4
-70.840352 42.419383 -31.3
-70.842458 42.418911 -31.6
-70.844566 42.418439 -31.0
-70.846674 42.417964 -30.1
-70.848738 42.417341 -29.5
-70.849769 42.417030 -28.3
-70.850802 42.416719 -29.5
-70.852866 42.416094 -27.7
-70.854933 42.415470 -28.0
-70.856302 42.415076 -25.8
-70.856985 42.414879 -26.7
-70.859041 42.414287 -28.0
-70.861094 42.413695 -28.0
-70.863149 42.413104 -27.1
-70.865155 42.412395 -24.6
-70.867163 42.411687 -24.0
-70.869169 42.410981 -24.0
-70.871177 42.410273 -25.5
-70.873185 42.409565 -25.5
-70.666761 42.408976 -68.8
-70.668750 42.409673 -68.2
-70.670742 42.410373 -67.4
-70.672733 42.411073 -66.6
-70.674725 42.411773 -66.0
-70.676733 42.412401 -64.8
-70.678742 42.413031 -63.7
-70.680753 42.413662 -63.0
-70.682765 42.414295 -62.1
-70.684809 42.414854 -62.1
-70.686856 42.415412 -61.8
-70.688901 42.415973 -61.5
-70.690948 42.416534 -60.1
-70.693040 42.417045 -59.2
-70.695134 42.417559 -58.8
-70.697229 42.418070 -58.5
-70.699323 42.418584 -56.9
-70.701409 42.419054 -54.8
-70.703498 42.419523 -54.2
-70.705584 42.419992 -51.1
-70.706629 42.420229 -49.6
-70.707673 42.420465 -51.4
-70.709793 42.420840 -50.8
-70.711915 42.421215 -49.3
-70.714034 42.421590 -46.2
-70.716157 42.421967 -49.0
-70.718332 42.422279 -49.7
-70.720507 42.422592 -50.3
-70.722682 42.422904 -49.3
-70.724857 42.423217 -44.0
-70.727016 42.423520 -48.0
-70.729174 42.423826 -49.0
-70.731335 42.424129 -46.3
-70.733496 42.424434 -44.4
-70.735696 42.424659 -42.9
-70.737896 42.424887 -45.3
-70.740096 42.425115 -46.0
-70.742296 42.425345 -45.0
-70.744466 42.425476 -46.3
-70.746638 42.425606 -45.3
-70.748810 42.425737 -42.9
-70.750982 42.425870 -37.6
-70.753225 42.425948 -36.5
-70.755470 42.426029 -43.2
-70.757714 42.426106 -43.2
-70.759961 42.426187 -40.5
-70.762158 42.426212 -37.7
-70.764358 42.426237 -32.4
-70.765458 42.426251 -31.1
-70.766558 42.426265 -32.2
-70.768756 42.426290 -37.2
-70.770950 42.426254 -33.2
-70.773145 42.426215 -31.1
-70.775339 42.426173 -33.6
-70.777536 42.426131 -37.6
-70.779733 42.426048 -37.2
-70.781931 42.425965 -36.0
-70.784131 42.425881 -35.2
-70.785231 42.425840 -33.5
-70.786331 42.425798 -34.6
-70.788489 42.425631 -38.2
-70.790647 42.425462 -39.8
-70.792809 42.425292 -41.6
-70.794971 42.425120 -41.6
-70.797037 42.424945 -41.0
-70.799107 42.424770 -40.7
-70.801176 42.424595 -40.4
-70.803246 42.424417 -37.0
-70.805554 42.424104 -29.9
-70.807865 42.423790 -27.8
-70.810176 42.423476 -30.2
-70.812487 42.423159 -36.2
-70.814612 42.422806 -37.2
-70.816737 42.422451 -37.0
-70.818862 42.422098 -36.8
-70.820990 42.421742 -36.5
-70.823143 42.421373 -35.2
-70.825298 42.421001 -34.3
-70.827454 42.420629 -33.3
-70.829612 42.420254 -32.4
-70.831734 42.419765 -31.8
-70.833859 42.419276 -31.5
-70.835985 42.418784 -31.2
-70.838110 42.418292 -31.1
-70.840210 42.417784 -30.9
-70.842313 42.417276 -30.9
-70.844416 42.416765 -30.3
-70.846522 42.416254 -29.7
-70.848583 42.415690 -29.1
-70.850647 42.415126 -29.2
-70.852710 42.414559 -29.1
-70.854777 42.413992 -28.3
-70.856788 42.413334 -28.5
-70.858802 42.412676 -28.7
-70.860816 42.412017 -28.2
-70.862830 42.411359 -27.2
-70.864844 42.410701 -25.7
-70.749430 42.427317 -45.4
-70.747171 42.427154 -47.5
-70.744913 42.426987 -46.6
-70.742655 42.426820 -47.5
-70.740396 42.426654 -47.0
-70.738141 42.426406 -38.9
-70.735885 42.426162 -41.9
-70.733630 42.425917 -43.2
-70.731374 42.425673 -44.4
-70.729119 42.425426 -45.4
-70.722363 42.425354 -48.7
-70.720188 42.425009 -48.3
-70.718013 42.424662 -48.6
-70.715838 42.424315 -49.3
-70.713659 42.423967 -49.6
-70.711490 42.423545 -49.9
-70.709320 42.423120 -49.6
-70.707151 42.422695 -49.6
-70.704979 42.422270 -50.5
-70.702812 42.421792 -52.7
-70.700645 42.421312 -53.0
-70.698479 42.420831 -53.6
-70.696309 42.420351 -54.2
-70.694129 42.419792 -53.9
-70.691948 42.419231 -54.3
-70.689768 42.418670 -55.2
-70.687584 42.418109 -57.0
-70.685454 42.417523 -60.0
-70.683323 42.416934 -61.3
-70.681193 42.416345 -63.1
-70.679058 42.415756 -64.3
-70.676983 42.415065 -64.9
-70.674905 42.414373 -65.6
-70.672136 42.413451 -66.1
-70.670750 42.412987 -67.0
-70.668692 42.412259 -67.9
-70.666633 42.411529 -68.4
-70.664572 42.410798 -68.8
-70.662511 42.410065 -69.7
-70.671208 42.407006 -65.8
-70.673203 42.407723 -64.0
-70.675197 42.408442 -62.5
-70.677194 42.409165 -63.7
-70.679247 42.409804 -63.7
-70.681303 42.410445 -63.4
-70.683359 42.411087 -62.5
-70.685418 42.411729 -62.2
-70.687526 42.412281 -61.6
-70.689634 42.412834 -61.0
-70.691743 42.413387 -60.4
-70.693854 42.413942 -59.6
-70.695990 42.414451 -58.4
-70.698126 42.414959 -57.0
-70.700262 42.415470 -56.0
-70.702401 42.415981 -54.5
-70.704570 42.416440 -53.0
-70.706740 42.416901 -48.3
-70.708909 42.417362 -47.1
-70.711081 42.417826 -48.6
-70.713284 42.418217 -53.3
-70.715490 42.418612 -53.0
-70.717696 42.419006 -51.5
-70.719905 42.419401 -48.7
-70.722119 42.419706 -48.7
-70.724335 42.420012 -50.5
-70.726552 42.420317 -52.1
-70.728769 42.420626 -50.2
-70.730988 42.420870 -48.7
-70.733207 42.421115 -48.7
-70.735427 42.421359 -48.6
-70.737649 42.421606 -47.0
-70.739885 42.421812 -44.7
-70.742124 42.422017 -41.0
-70.744360 42.422223 -39.0
-70.745107 42.422292 -37.2
-70.746599 42.422431 -38.8
-70.748852 42.422551 -43.7
-70.751105 42.422673 -44.0
-70.753358 42.422792 -41.9
-70.754486 42.422854 -44.0
-70.755614 42.422915 -42.8
-70.757850 42.422973 -40.7
-70.760089 42.423031 -37.6
-70.762325 42.423090 -34.2
-70.764564 42.423148 -40.7
-70.766828 42.423148 -38.5
-70.769092 42.423145 -38.2
-70.771356 42.423142 -37.6
-70.773622 42.423137 -39.9
-70.775875 42.423056 -38.4
-70.778131 42.422973 -35.0
-70.778881 42.422945 -33.8
-70.780383 42.422890 -36.7
-70.782639 42.422806 -39.0
-70.784889 42.422667 -37.4
-70.785642 42.422620 -35.0
-70.787142 42.422529 -36.5
-70.789395 42.422390 -39.9
-70.791647 42.422248 -40.7
-70.793879 42.422059 -39.9
-70.796112 42.421870 -40.1
-70.798346 42.421679 -39.1
-70.800579 42.421487 -37.6
-70.802782 42.421204 -35.7
-70.809398 42.420342 -37.1
-70.811607 42.420015 -37.0
-70.813818 42.419687 -36.8
-70.816029 42.419359 -36.1
-70.818240 42.419029 -34.9
-70.820440 42.418637 -33.4
-70.822640 42.418245 -31.8
-70.824843 42.417854 -30.0
-70.827046 42.417459 -29.1
-70.829198 42.416998 -30.3
-70.831354 42.416534 -30.3
-70.833509 42.416070 -29.8
-70.835668 42.415604 -29.4
-70.837819 42.415079 -29.4
-70.839972 42.414551 -29.1
-70.842124 42.414023 -29.7
-70.844280 42.413495 -30.0
-70.846388 42.412909 -29.4
-70.847091 42.412712 -29.4
-70.848497 42.412320 -29.7
-70.850605 42.411731 -29.7
-70.852716 42.411140 -29.4
-70.854833 42.410492 -29.2
-70.856949 42.409842 -29.1
-70.859066 42.409192 -28.8
-70.861183 42.408542 -27.9
-70.863224 42.407820 -27.5
-70.865266 42.407095 -28.1
-70.867308 42.406370 -27.8
-70.869352 42.405645 -27.2
-70.871380 42.404879 -26.9
-70.872058 42.404620 -25.6
-70.873410 42.404109 -27.8
-70.875441 42.403340 -27.8
-70.877472 42.402567 -26.3
-70.886170 42.404206 -18.8
-70.885242 42.404598 -17.9
-70.884314 42.404990 -21.0
-70.882459 42.405776 -26.6
-70.880602 42.406562 -21.6
-70.878744 42.407348 -27.2
-70.876816 42.408098 -28.1
-70.874885 42.408848 -28.4
-70.872952 42.409598 -25.3
-70.864035 42.411095 -26.2
-70.866030 42.410367 -24.2
-70.866697 42.410126 -23.4
-70.868027 42.409640 -24.5
-70.870024 42.408909 -26.5
-70.872022 42.408181 -27.3
-70.874024 42.407384 -27.6
-70.876027 42.406590 -27.7
-70.878030 42.405792 -26.2
-70.880033 42.404998 -23.4
-70.881035 42.404601 -26.5
-70.882038 42.404201 -22.5
-70.881385 42.402754 -20.3
-70.879502 42.403490 -24.6
-70.877619 42.404229 -26.5
-70.875733 42.404967 -27.7
-70.873847 42.405706 -27.4
-70.871894 42.406420 -27.1
-70.869938 42.407134 -27.1
-70.867983 42.407851 -27.4
-70.866024 42.408567 -26.2
-70.865019 42.408895 -25.2
-70.864013 42.409226 -25.8
-70.861999 42.409887 -27.3
-70.859988 42.410548 -28.3
-70.857974 42.411212 -28.7
-70.855933 42.411842 -29.0
-70.853891 42.412473 -29.0
-70.851849 42.413104 -29.1
-70.849805 42.413737 -29.3
-70.847691 42.414248 -29.0
-70.845574 42.414762 -29.7
-70.843458 42.415276 -30.1
-70.841341 42.415790 -30.1
-70.839227 42.416315 -30.1
-70.837113 42.416840 -30.1
-70.834996 42.417367 -30.1
-70.832879 42.417895 -29.8
-70.830740 42.418317 -31.0
-70.828601 42.418740 -30.4
-70.826459 42.419162 -30.7
-70.824318 42.419587 -32.9
-70.822154 42.419956 -34.4
-70.819990 42.420326 -35.1
-70.817826 42.420695 -36.3
-70.815659 42.421067 -36.6
-70.813443 42.421387 -36.9
-70.811223 42.421709 -36.6
-70.809004 42.422031 -35.4
-70.807896 42.422192 -32.3
-70.806784 42.422356 -32.6
-70.805657 42.422476 -31.3
-70.804529 42.422595 -32.3
-70.802273 42.422834 -36.3
-70.800015 42.423076 -39.4
-70.797757 42.423317 -40.3
-70.795559 42.423501 -40.9
-70.793362 42.423684 -40.6
-70.791164 42.423867 -41.2
-70.788964 42.424051 -37.9
-70.786731 42.424156 -36.0
-70.784497 42.424265 -37.5
-70.782264 42.424373 -35.7
-70.780028 42.424481 -32.3
-70.777800 42.424545 -36.9
-70.775570 42.424609 -39.1
-70.773342 42.424673 -37.9
-70.771111 42.424740 -35.5
-70.768875 42.424720 -35.8
-70.766636 42.424701 -36.7
-70.764397 42.424681 -32.8
-70.762156 42.424659 -37.2
-70.759928 42.424592 -40.6
-70.757697 42.424523 -42.1
-70.755467 42.424454 -41.2
-70.753236 42.424381 -41.5
-70.751021 42.424251 -36.9
-70.749916 42.424184 -36.6
-70.748807 42.424120 -37.9
-70.746594 42.423987 -43.6
-70.744377 42.423854 -44.0
-70.741849 42.420401 -41.5
-70.744055 42.420567 -40.9
-70.746263 42.420737 -41.8
-70.747366 42.420820 -43.5
-70.748471 42.420906 -40.3
-70.750680 42.421076 -42.4
-70.752924 42.421165 -43.3
-70.755172 42.421254 -42.1
-70.757417 42.421342 -37.9
-70.759664 42.421434 -34.2
-70.761920 42.421479 -40.1
-70.764178 42.421526 -39.4
-70.766436 42.421573 -40.1
-70.768695 42.421623 -40.7
-70.770942 42.421581 -39.4
-70.773189 42.421540 -41.0
-70.775439 42.421495 -39.7
-70.777689 42.421451 -37.9
-70.779920 42.421342 -35.7
-70.782150 42.421234 -35.4
-70.784383 42.421126 -38.8
-70.786617 42.421017 -38.2
-70.788845 42.420862 -39.4
-70.791072 42.420706 -40.4
-70.793300 42.420551 -39.1
-70.795532 42.420392 -38.2
-70.797734 42.420167 -38.2
-70.799940 42.419940 -38.5
-70.802146 42.419712 -37.9
-70.804351 42.419481 -37.2
-70.806534 42.419173 -36.9
-70.808718 42.418862 -37.2
-70.810901 42.418551 -36.9
-70.813087 42.418240 -36.3
-70.815251 42.417887 -35.4
-70.817418 42.417531 -34.5
-70.819584 42.417179 -31.4
-70.821751 42.416823 -29.6
-70.823909 42.416412 -28.7
-70.826071 42.415998 -29.3
-70.828232 42.415584 -29.3
-70.830396 42.415167 -29.6
-70.832501 42.414665 -29.3
-70.834607 42.414159 -29.3
-70.836712 42.413656 -29.3
-70.838822 42.413151 -29.3
-70.840933 42.412609 -29.6
-70.843047 42.412065 -29.0
-70.845160 42.411520 -29.6
-70.847277 42.410976 -29.9
-70.849349 42.410348 -29.9
-70.851422 42.409717 -29.6
-70.853494 42.409090 -29.6
-70.855569 42.408459 -29.3
-70.857610 42.407790 -29.3
-70.859655 42.407117 -28.3
-70.861699 42.406445 -28.7
-70.863744 42.405773 -28.7
-70.865760 42.405087 -27.4
-70.867780 42.404398 -28.3
-70.869799 42.403709 -28.7
-70.871822 42.403017 -28.3
-70.868941 42.402256 -28.7
-70.866947 42.402962 -28.4
-70.864952 42.403670 -28.4
-70.862958 42.404379 -28.7
-70.860960 42.405087 -29.0
-70.858919 42.405756 -28.9
-70.856877 42.406429 -29.3
-70.854833 42.407101 -29.3
-70.852788 42.407776 -29.3
-70.850691 42.408367 -29.6
-70.848594 42.408959 -29.8
-70.846497 42.409554 -29.8
-70.844397 42.410148 -29.9
-70.842255 42.410684 -29.8
-70.840113 42.411223 -29.8
-70.837968 42.411762 -29.5
-70.835823 42.412301 -28.3
-70.833671 42.412801 -28.6
-70.831515 42.413301 -28.6
-70.829359 42.413801 -28.6
-70.827201 42.414304 -28.9
-70.824993 42.414670 -28.9
-70.822784 42.415037 -30.4
-70.820576 42.415404 -28.6
-70.818365 42.415773 -31.3
-70.816171 42.416129 -34.1
-70.813973 42.416484 -35.1
-70.811779 42.416842 -35.7
-70.809582 42.417201 -36.0
-70.807348 42.417456 -36.4
-70.805112 42.417715 -36.3
-70.802876 42.417973 -36.3
-70.800637 42.418231 -37.2
-70.798415 42.418454 -37.5
-70.796193 42.418676 -38.8
-70.793970 42.418898 -39.4
-70.791745 42.419123 -40.3
-70.789508 42.419267 -40.1
-70.787270 42.419415 -39.5
-70.785031 42.419562 -39.5
-70.782789 42.419709 -38.9
-70.780570 42.419756 -35.5
-70.778347 42.419806 -35.5
-70.776125 42.419856 -38.3
-70.773903 42.419906 -40.0
-70.771656 42.419945 -40.8
-70.769406 42.419984 -40.8
-70.767156 42.420026 -41.1
-70.766031 42.420045 -39.9
-70.764908 42.420065 -40.8
-70.762647 42.419990 -41.1
-70.760389 42.419909 -34.6
-70.759258 42.419870 -32.8
-70.758128 42.419829 -34.3
-70.755867 42.419748 -37.7
-70.753646 42.419623 -40.8
-70.751424 42.419495 -42.9
-70.749202 42.419367 -44.1
-70.746977 42.419240 -44.8
-70.744741 42.419076 -45.7
-70.742505 42.418912 -45.7
-70.740269 42.418745 -45.7
-70.738030 42.418579 -47.5
-70.735866 42.418292 -49.1
-70.733702 42.418004 -50.6
-70.731538 42.417715 -52.2
-70.729371 42.417423 -51.0
-70.727230 42.417148 -47.2
-70.725088 42.416873 -48.8
-70.722946 42.416595 -50.3
-70.720805 42.416317 -51.9
-70.718688 42.415942 -53.5
-70.716568 42.415565 -52.5
-70.714448 42.415187 -52.2
-70.712326 42.414806 -51.6
-70.710243 42.414354 -51.3
-70.708159 42.413901 -51.3
-70.706073 42.413448 -50.4
-70.703987 42.412992 -50.7
-70.701929 42.412540 -51.3
-70.699870 42.412087 -51.0
-70.697812 42.411634 -55.6
-70.695754 42.411179 -58.6
-70.693726 42.410620 -60.0
-70.691695 42.410059 -60.8
-70.689668 42.409498 -61.4
-70.687637 42.408937 -60.8
-70.685612 42.408329 -60.0
-70.683583 42.407720 -61.1
-70.681555 42.407112 -62.8
-70.679528 42.406501 -64.1
-70.677519 42.405829 -64.7
-70.675511 42.405156 -65.0
-70.673503 42.404484 -66.3
-70.671492 42.403809 -66.6
-70.669483 42.403137 -67.2
-70.667472 42.402462 -68.2
-70.668761 42.399204 -68.2
-70.670805 42.399945 -67.2
-70.672853 42.400690 -66.9
-70.674900 42.401434 -66.0
-70.676950 42.402179 -65.1
-70.679058 42.402879 -63.3
-70.681169 42.403579 -59.1
-70.683280 42.404279 -57.5
-70.685395 42.404981 -58.6
-70.687581 42.405595 -60.4
-70.689770 42.406209 -60.9
-70.691956 42.406823 -60.3
-70.694145 42.407440 -59.1
-70.696381 42.407970 -57.2
-70.698620 42.408501 -53.9
-70.699365 42.408679 -53.1
-70.700856 42.409031 -55.4
-70.703095 42.409565 -54.0
-70.705329 42.410056 -53.3
-70.707562 42.410548 -51.1
-70.709795 42.411042 -48.6
-70.712031 42.411537 -47.4
-70.714306 42.411951 -47.8
-70.716581 42.412365 -51.2
-70.718859 42.412779 -53.3
-70.721138 42.413195 -52.1
-70.723424 42.413498 -51.5
-70.725713 42.413804 -53.3
-70.728002 42.414106 -52.7
-70.730294 42.414412 -50.5
-70.732574 42.414704 -47.2
-70.733716 42.414851 -45.7
-70.734855 42.414998 -46.9
-70.737138 42.415292 -48.7
-70.739421 42.415590 -45.8
-70.741721 42.415745 -41.3
-70.744021 42.415901 -37.6
-70.746324 42.416056 -42.2
-70.748627 42.416215 -41.6
-70.750916 42.416345 -38.9
-70.753207 42.416476 -39.5
-70.755499 42.416609 -40.2
-70.757792 42.416742 -41.7
-70.760064 42.416798 -41.4
-70.762339 42.416854 -42.0
-70.764614 42.416909 -41.7
-70.766889 42.416967 -41.1
-70.769133 42.416923 -40.6
-70.771381 42.416876 -41.1
-70.773625 42.416829 -40.3
-70.775872 42.416781 -39.4
-70.778106 42.416723 -37.7
-70.780339 42.416665 -37.7
-70.782575 42.416604 -39.6
-70.784811 42.416542 -39.6
-70.787031 42.416354 -38.6
-70.789250 42.416165 -38.0
-70.791470 42.415973 -37.1
-70.793692 42.415781 -36.5
-70.795886 42.415562 -35.3
-70.798084 42.415342 -34.4
-70.800282 42.415123 -33.6
-70.802482 42.414901 -33.5
-70.804665 42.414554 -33.5
-70.802482 42.414901 -33.5
-70.804665 42.414554 -33.5
-70.806848 42.414206 -33.8
-70.809032 42.413856 -32.9
-70.811215 42.413506 -32.9
-70.813418 42.413234 -33.5
-70.815623 42.412962 -33.2
-70.817826 42.412690 -32.2
-70.820032 42.412415 -28.5
-70.822159 42.411973 -27.4
-70.824290 42.411529 -28.9
-70.826421 42.411084 -29.2
-70.828551 42.410637 -29.5
-70.830668 42.410140 -28.6
-70.831373 42.409973 -27.8
-70.832784 42.409642 -28.6
-70.834901 42.409142 -29.8
-70.837018 42.408645 -30.4
-70.839112 42.408101 -30.4
-70.841205 42.407556 -30.1
-70.843297 42.407012 -29.8
-70.845391 42.406465 -29.8
-70.847433 42.405856 -29.5
-70.849474 42.405245 -29.2
-70.851516 42.404634 -27.7
-70.853558 42.404020 -26.8
-70.855047 42.405617 -28.0
-70.853044 42.406142 -29.0
-70.851038 42.406670 -29.9
-70.849030 42.407198 -29.9
-70.846913 42.407756 -30.0
-70.844797 42.408315 -29.9
-70.842677 42.408873 -29.9
-70.840558 42.409431 -29.9
-70.838373 42.409954 -30.2
-70.836187 42.410476 -29.3
-70.834001 42.410998 -28.3
-70.831812 42.411523 -27.1
-70.829604 42.411981 -29.0
-70.827393 42.412440 -29.3
-70.825182 42.412901 -29.6
-70.822971 42.413362 -29.3
-70.820754 42.413712 -25.9
-70.818534 42.414062 -30.5
-70.816315 42.414412 -33.0
-70.814096 42.414765 -34.0
-70.811893 42.415123 -34.0
-70.809687 42.415481 -34.0
-70.807484 42.415840 -34.6
-70.805279 42.416201 -34.6
-70.803029 42.416420 -34.3
-70.800776 42.416640 -34.6
-70.798523 42.416859 -35.5
-70.796271 42.417081 -37.0
-70.793995 42.417281 -38.9
-70.791720 42.417481 -39.8
-70.789445 42.417684 -40.2
-70.787167 42.417887 -40.5
-70.784931 42.417979 -40.5
-70.782692 42.418070 -39.3
-70.780456 42.418165 -38.0
-70.778217 42.418259 -36.1
-70.775950 42.418287 -38.0
-70.773683 42.418317 -39.1
-70.772550 42.418334 -37.7
-70.771417 42.418348 -39.9
-70.769147 42.418381 -40.5
-70.766933 42.418370 -40.5
-70.764717 42.418359 -41.1
-70.762500 42.418348 -41.7
-70.760283 42.418334 -40.2
-70.759195 42.418295 -36.8
-70.758106 42.418254 -37.7
-70.755925 42.418173 -37.7
-70.753744 42.418092 -37.4
-70.751563 42.418009 -41.0
-70.749371 42.417873 -43.3
-70.747180 42.417737 -45.2
-70.744985 42.417601 -45.8
-70.742791 42.417462 -45.8
-70.740646 42.417212 -47.3
-70.738499 42.416959 -48.2
-70.736352 42.416706 -48.2
-70.734202 42.416454 -48.4
-70.732230 42.413231 -47.4
-70.734480 42.413473 -48.0
-70.736730 42.413717 -45.2
-70.738980 42.413962 -40.6
-70.741232 42.414209 -38.8
-70.743485 42.414365 -36.0
-70.745741 42.414520 -38.4
-70.747994 42.414679 -42.4
-70.750249 42.414837 -42.4
-70.752502 42.414898 -43.0
-70.754757 42.414962 -43.6
-70.757014 42.415026 -44.0
-70.759270 42.415092 -42.8
-70.761558 42.415151 -42.8
-70.763847 42.415209 -42.5
-70.766139 42.415267 -41.9
-70.768431 42.415329 -41.9
-70.770670 42.415301 -40.7
-70.772908 42.415270 -40.1
-70.775150 42.415240 -39.4
-70.777392 42.415206 -37.2
-70.779589 42.415095 -37.9
-70.781786 42.414981 -36.6
-70.783986 42.414867 -36.3
-70.786186 42.414751 -36.3
-70.788381 42.414576 -35.4
-70.790578 42.414401 -34.8
-70.792772 42.414223 -34.6
-70.794970 42.414045 -34.3
-70.797145 42.413845 -34.0
-70.799323 42.413645 -33.3
-70.801501 42.413442 -33.3
-70.803679 42.413240 -32.7
-70.805815 42.412920 -33.0
-70.807954 42.412598 -32.7
-70.810093 42.412276 -32.7
-70.812234 42.411951 -32.7
-70.814415 42.411601 -32.7
-70.816598 42.411251 -32.7
-70.818782 42.410901 -31.5
-70.820965 42.410548 -29.7
-70.823084 42.410117 -29.7
-70.825204 42.409684 -29.7
-70.827323 42.409251 -29.2
-70.829446 42.408817 -29.1
-70.831515 42.408323 -29.4
-70.832548 42.408076 -28.3
-70.833584 42.407829 -29.7
-70.835654 42.407334 -30.6
-70.837723 42.406840 -30.9
-70.839787 42.406298 -30.4
-70.841852 42.405756 -29.4
-70.842883 42.405484 -28.5
-70.843913 42.405215 -29.1
-70.845977 42.404673 -29.7
-70.842969 42.403973 -26.9
-70.840851 42.404542 -29.1
-70.838734 42.405112 -31.0
-70.836618 42.405681 -31.6
-70.834498 42.406254 -31.0
-70.832265 42.406662 -31.3
-70.830029 42.407070 -30.1
-70.827793 42.407481 -29.8
-70.825557 42.407892 -29.8
-70.823329 42.408331 -29.8
-70.821098 42.408773 -29.5
-70.818868 42.409215 -30.7
-70.816634 42.409656 -32.2
-70.814415 42.409965 -33.2
-70.812193 42.410276 -33.2
-70.809971 42.410587 -32.4
-70.807748 42.410901 -32.9
-70.805465 42.411217 -32.9
-70.803182 42.411534 -33.2
-70.800898 42.411854 -32.6
-70.798615 42.412173 -32.9
-70.796345 42.412373 -33.3
-70.794075 42.412576 -33.3
-70.791806 42.412779 -33.3
-70.789533 42.412981 -33.3
-70.787278 42.413104 -33.6
-70.785022 42.413226 -33.9
-70.782767 42.413348 -34.5
-70.780508 42.413473 -35.7
-70.778267 42.413540 -36.6
-70.776025 42.413609 -38.2
-70.773781 42.413679 -39.6
-70.771536 42.413748 -41.0
-70.769370 42.413720 -42.0
-70.767200 42.413690 -42.2
-70.765031 42.413659 -43.0
-70.762861 42.413626 -43.2
-70.760683 42.413601 -45.3
-70.758503 42.413573 -46.0
-70.756321 42.413545 -45.5
-70.754144 42.413520 -43.6
-70.751971 42.413365 -42.2
-70.749799 42.413212 -42.6
-70.747627 42.413059 -41.0
-70.745455 42.412904 -39.5
-70.743269 42.412684 -41.3
-70.741080 42.412462 -41.0
-70.738891 42.412242 -41.3
-70.736699 42.412020 -40.1
-70.734527 42.411737 -42.9
-70.732355 42.411454 -46.6
-70.730182 42.411170 -49.1
-70.728007 42.410887 -49.2
-70.725824 42.410548 -47.1
-70.723641 42.410209 -47.9
-70.721455 42.409870 -51.8
-70.719268 42.409529 -52.2
-70.717104 42.409134 -52.2
-70.714937 42.408737 -51.8
-70.712770 42.408340 -50.9
-70.710604 42.407945 -53.4
-70.708462 42.407476 -54.4
-70.706323 42.407006 -53.2
-70.704181 42.406537 -53.5
-70.702040 42.406067 -56.2
-70.699906 42.405512 -55.9
-70.697773 42.404956 -52.7
-70.695640 42.404401 -54.7
-70.693504 42.403842 -55.7
-70.691387 42.403245 -59.9
-70.689270 42.402645 -60.8
-70.687154 42.402045 -61.7
-70.685033 42.401445 -62.3
-70.682967 42.400726 -62.6
-70.680897 42.400006 -63.4
-70.678828 42.399287 -63.9
-70.676755 42.398565 -64.8
-70.674705 42.397865 -65.9
-70.672653 42.397163 -66.3
-70.670600 42.396460 -67.5
-70.668544 42.395755 -67.8
-70.669053 42.385285 -66.6
-70.671005 42.386041 -66.4
-70.672961 42.386799 -66.1
-70.674917 42.387557 -66.1
-70.676875 42.388316 -65.5
-70.678947 42.389024 -64.7
-70.681022 42.389732 -63.9
-70.683097 42.390441 -63.0
-70.685172 42.391152 -62.4
-70.687230 42.391793 -61.5
-70.689289 42.392438 -60.6
-70.691351 42.393082 -59.7
-70.693412 42.393727 -58.0
-70.695529 42.394302 -56.0
-70.697645 42.394876 -53.7
-70.699765 42.395451 -53.6
-70.701884 42.396026 -51.5
-70.704043 42.396567 -50.2
-70.706201 42.397109 -48.9
-70.708359 42.397651 -47.8
-70.710520 42.398192 -47.5
-70.712720 42.398617 -48.1
-70.714920 42.399042 -48.4
-70.717120 42.399467 -48.9
-70.719320 42.399892 -49.3
-70.721540 42.400267 -50.5
-70.723759 42.400642 -51.0
-70.725980 42.401020 -50.2
-70.728202 42.401398 -51.1
-70.730435 42.401695 -50.3
-70.732671 42.401992 -48.6
-70.734907 42.402292 -47.2
-70.736027 42.402442 -44.4
-70.737146 42.402592 -47.2
-70.739421 42.402817 -47.9
-70.741696 42.403042 -46.6
-70.788164 42.432878 -42.6
-70.790359 42.432669 -42.2
-70.792557 42.432458 -41.9
-70.794751 42.432247 -41.9
-70.796948 42.432036 -41.8
-70.799190 42.431828 -40.1
-70.801432 42.431616 -41.9
-70.803676 42.431405 -41.9
-70.805921 42.431194 -41.6
-70.803598 42.429800 -41.6
-70.801426 42.430003 -42.2
-70.799251 42.430205 -41.9
-70.797079 42.430408 -41.9
-70.794904 42.430611 -41.3
-70.792729 42.430814 -39.4
-70.791643 42.430916 -38.2
-70.790554 42.431019 -40.4
-70.788336 42.431169 -39.7
-70.786117 42.431320 -41.5
-70.793682 42.431211 -42.0
-70.792190 42.431303 -36.1
-70.791443 42.431350 -40.0
-70.789203 42.431489 -42.3
-70.786961 42.431630 -40.5
-70.784722 42.431769 -43.2
-70.803348 42.436853 -42.2
-70.852916 42.423725 -31.2
-70.854549 42.423250 -31.0
-70.856185 42.422775 -30.7
-70.857822 42.422297 -30.7
-70.859458 42.421822 -30.7
-70.861094 42.421344 -30.7
-70.862730 42.420866 -30.1
-70.864299 42.420339 -29.9
-70.865872 42.419808 -29.7
-70.867444 42.419278 -29.1
-70.869016 42.418747 -29.1
-70.868241 42.417439 -29.1
-70.866749 42.417891 -29.5
-70.865258 42.418344 -29.5
-70.863766 42.418797 -29.8
-70.862274 42.419250 -30.3
-70.860783 42.419703 -30.3
-70.859291 42.420158 -30.3
-70.857730 42.420625 -29.1
-70.856166 42.421091 -30.9
-70.854602 42.421558 -30.9
-70.853035 42.422025 -30.6
-70.852830 42.422478 -31.1
-70.854485 42.421978 -31.1
-70.856141 42.421478 -31.1
-70.857797 42.420978 -30.8
-70.859455 42.420475 -30.4
-70.861110 42.419975 -30.4
-70.862769 42.419472 -30.1
-70.864644 42.418108 -29.8
-70.863202 42.418633 -29.9
-70.861760 42.419161 -30.4
-70.860319 42.419689 -30.4
-70.858877 42.420216 -29.8
-70.857435 42.420744 -30.4
-70.855991 42.421275 -30.7
-70.851358 42.422003 -31.0
-70.852966 42.421547 -31.0
-70.854577 42.421091 -30.4
-70.856188 42.420636 -27.7
-70.857799 42.420180 -29.8
-70.859410 42.419725 -28.6
-70.861019 42.419269 -30.7
-70.862127 42.418105 -30.3
-70.860605 42.418550 -30.3
-70.859083 42.418997 -30.3
-70.857560 42.419441 -29.4
-70.856038 42.419889 -29.1
-70.854516 42.420333 -30.3
-70.852991 42.420780 -30.9
-70.852905 42.420303 -30.8
-70.854558 42.419819 -30.8
-70.856213 42.419336 -28.7
-70.857041 42.419094 -27.7
-70.857869 42.418850 -30.2
-70.859524 42.418366 -30.2
-70.861183 42.417880 -30.2
-70.862352 42.422061 -30.2
-70.861235 42.421203 -30.2
-70.860119 42.420341 -30.7
-70.859372 42.419766 -29.3
-70.858999 42.419480 -30.2
-70.857883 42.418619 -29.9
-70.856763 42.417758 -29.9
-70.855644 42.416897 -29.3
-70.859841 42.413190 -28.1
-70.861419 42.412656 -27.6
-70.862997 42.412120 -26.8
-70.864574 42.411584 -25.2
-70.866155 42.411048 -24.0
-70.867733 42.410512 -23.6
-70.868785 42.410154 -21.9
-70.869313 42.409973 -24.0
-70.870872 42.409423 -26.2
-70.872435 42.408867 -26.5
-70.872808 42.407026 -27.1
-70.871305 42.407554 -27.4
-70.869802 42.408081 -27.4
-70.868299 42.408609 -24.9
-70.866794 42.409140 -24.6
-70.865291 42.409667 -18.5
-70.863785 42.410198 -26.2
-70.862158 42.410412 -27.1
-70.863624 42.409881 -26.2
-70.865094 42.409351 -21.6
-70.865585 42.409173 -18.1
-70.866563 42.408820 -24.2
-70.868035 42.408287 -26.6
-70.868547 42.409081 -25.2
-70.867135 42.409540 -24.6
-70.865722 42.410001 -21.9
-70.864308 42.410462 -25.5
-70.862891 42.410926 -26.8
-70.851052 42.405737 -29.0
-70.849505 42.406162 -29.3
-70.847955 42.406587 -29.6
-70.846405 42.407012 -29.6
-70.844855 42.407437 -29.6
-70.843305 42.407862 -29.9
-70.841755 42.408290 -29.9
-70.840130 42.408698 -29.9
-70.838501 42.409106 -30.2
-70.836873 42.409515 -29.9
-70.835246 42.409923 -29.6
-70.833618 42.410331 -28.7
-70.831990 42.410740 -27.3
-70.830348 42.411098 -28.3
-70.828707 42.411459 -28.7
-70.827065 42.411820 -29.3
-70.825423 42.412181 -29.0
-70.826134 42.410606 -29.2
-70.827643 42.410229 -28.6
-70.829151 42.409848 -28.6
-70.830659 42.409470 -27.7
-70.832168 42.409090 -29.2
-70.833676 42.408712 -28.6
-70.835187 42.408331 -30.1
-70.836790 42.407920 -29.8
-70.838396 42.407506 -30.4
-70.839998 42.407092 -30.1
-70.841605 42.406679 -29.8
-70.843208 42.406265 -29.2
-70.844813 42.405851 -29.5
-70.846419 42.405437 -29.5
-70.846755 42.406604 -29.8
-70.845197 42.407012 -29.6
-70.843635 42.407420 -29.8
-70.842077 42.407829 -29.9
-70.840516 42.408237 -30.2
-70.838954 42.408645 -30.1
-70.837393 42.409054 -29.9
-70.838257 42.408137 -30.4
-70.839804 42.407687 -29.9
-70.841352 42.407237 -30.1
-70.842899 42.406787 -29.5
-70.844449 42.406337 -29.6
-70.845997 42.405887 -29.6
-70.847547 42.405434 -29.6
-70.845708 42.403967 -29.9
-70.844113 42.404367 -29.6
-70.842516 42.404770 -27.0
-70.841983 42.404904 -26.5
-70.840918 42.405170 -28.5
-70.839321 42.405573 -30.1
-70.837723 42.405976 -30.7
-70.836129 42.406376 -31.3
-70.833943 42.406884 -30.5
-70.832304 42.407262 -30.8
-70.830665 42.407642 -28.5
-70.829029 42.408020 -29.1
-70.827934 42.408273 -29.3
-70.826296 42.408654 -29.4
-70.824640 42.408945 -29.6
-70.822982 42.409237 -29.6
-70.821323 42.409529 -29.1
-70.819665 42.409823 -30.2
-70.818159 42.408745 -30.7
-70.819684 42.408412 -30.1
-70.821212 42.408076 -29.7
-70.822737 42.407742 -29.4
-70.824265 42.407406 -29.9
-70.825793 42.407070 -30.1
-70.827321 42.406734 -30.3
-70.828921 42.406376 -30.7
-70.830521 42.406017 -31.3
-70.832123 42.405656 -31.5
-70.833723 42.405298 -31.6
-70.835326 42.404937 -31.6
-70.836929 42.404576 -31.6
-70.838504 42.404154 -31.3
-70.840079 42.403731 -30.4
-70.841657 42.403309 -28.3
-70.843233 42.402884 -30.1
-70.844810 42.402462 -30.4
-70.846388 42.402037 -29.8
-70.847924 42.401554 -29.2
-70.849460 42.401070 -28.4
-70.850997 42.400584 -28.3
-70.852533 42.400101 -28.0
-70.854069 42.399615 -25.5
-70.854838 42.399373 -25.2
-70.855608 42.399129 -26.5
-70.857116 42.398595 -27.1
-70.858627 42.398059 -27.1
-70.860138 42.397523 -27.1
-70.861647 42.396990 -27.1
-70.863158 42.396454 -25.2
-70.864166 42.396095 -21.5
-70.864669 42.395917 -22.4
-70.866180 42.395381 -21.4
-70.863766 42.394687 -23.0
-70.862999 42.394948 -21.3
-70.862233 42.395212 -21.9
-70.860697 42.395740 -24.3
-70.859163 42.396267 -26.5
-70.857627 42.396795 -27.1
-70.856091 42.397323 -27.9
-70.854555 42.397854 -28.3
-70.853374 42.396592 -28.5
-70.854813 42.396056 -28.5
-70.856252 42.395517 -27.9
-70.857691 42.394979 -26.8
-70.859133 42.394440 -22.9
-70.860572 42.393901 -22.3
-70.862013 42.393362 -24.7
-70.865049 42.390562 -27.2
-70.863508 42.391117 -26.3
-70.861963 42.391673 -24.9
-70.860419 42.392229 -23.5
-70.858877 42.392784 -23.2
-70.857333 42.393340 -23.5
-70.855788 42.393895 -26.9
-70.854244 42.394454 -28.2
-70.854113 42.393679 -27.9
-70.855605 42.393145 -25.4
-70.857097 42.392609 -23.5
-70.858588 42.392073 -22.9
-70.860080 42.391537 -22.3
-70.861572 42.391001 -23.8
-70.863063 42.390462 -25.7
-70.863216 42.392245 -26.3
-70.861663 42.392762 -24.7
-70.860108 42.393279 -23.5
-70.858552 42.393795 -22.7
-70.856997 42.394312 -26.0
-70.855441 42.394829 -27.9
-70.853883 42.395348 -28.2
-70.855110 42.396912 -28.2
-70.856547 42.396370 -27.9
-70.857985 42.395829 -27.3
-70.859424 42.395287 -25.1
-70.860863 42.394745 -22.5
-70.862302 42.394204 -21.1
-70.863744 42.393659 -26.2
-70.865360 42.395092 -23.6
-70.863916 42.395534 -21.3
-70.862466 42.395981 -23.9
-70.860908 42.396495 -26.4
-70.859347 42.397012 -26.7
-70.857785 42.397529 -26.8
-70.856224 42.398045 -27.7
-70.854663 42.398562 -27.4
-70.853099 42.399079 -28.3
-70.851530 42.399579 -28.6
-70.849958 42.400079 -28.3
-70.848383 42.400579 -28.9
-70.849127 42.402056 -28.9
-70.850602 42.401581 -28.3
-70.852077 42.401106 -27.4
-70.853552 42.400631 -23.7
-70.854291 42.400392 -21.8
-70.855027 42.400156 -22.9
-70.856502 42.399681 -26.1
-70.857980 42.399204 -27.7
-70.858169 42.400959 -28.9
-70.856610 42.401440 -26.8
-70.855052 42.401920 -24.2
-70.853494 42.402404 -24.0
-70.851933 42.402884 -25.2
-70.850374 42.403367 -28.0
-70.848813 42.403851 -29.3
-70.847558 42.403476 -29.3
-70.848938 42.403026 -29.0
-70.850319 42.402576 -27.9
-70.851699 42.402126 -26.2
-70.853080 42.401676 -23.4
-70.854460 42.401226 -22.2
-70.855844 42.400776 -24.3
-70.856044 42.399481 -26.2
-70.854580 42.399934 -22.8
-70.853116 42.400390 -25.0
-70.851652 42.400845 -27.8
-70.850188 42.401301 -28.1
-70.848722 42.401756 -28.7
-70.849380 42.402448 -28.5
-70.850813 42.401987 -27.2
-70.852249 42.401523 -26.0
-70.853683 42.401062 -23.2
-70.854402 42.400831 -22.3
-70.855119 42.400598 -23.2
-70.856555 42.400137 -26.6
-70.857991 42.399673 -28.2
-70.858730 42.396937 -26.3
-70.857994 42.396087 -27.0
-70.857255 42.395234 -26.7
-70.856519 42.394384 -25.7
-70.855780 42.393531 -26.0
-70.855041 42.392679 -24.8
-70.854302 42.391826 -25.4
-70.855166 42.389576 -21.5
-70.856097 42.390690 -19.6
-70.857027 42.391804 -22.3
