-71.772994 40.681659 -56.7
-72.014419 40.107703 -74.2
-71.977546 40.659174 -50.6
-71.611062 40.671361 -71.4
-71.919455 40.280416 -69.4
-72.134292 40.350238 -62.0
-72.094892 40.611712 -52.7
-71.711359 40.75277 -62.2
-72.221041 40.104404 -74.3
-72.201557 40.135118 -72.1
-72.14311 40.388992 -63.0
-72.151946 40.385203 -62.1
-72.118954 40.617982 -51.2
-71.70521 40.602202 -67.3
-71.773813 40.613088 -61.5
-71.935531 40.41925 -68.5
-71.74306 40.648593 -61.9
-71.798381 40.636824 -60.4
-71.786306 40.721314 -54.4
-71.68372 40.740935 -68.5
-71.97365 40.390911 -67.8
-72.004497 40.565763 -56.8
-72.032898 40.786578 -41.6
-72.055701 40.070051 -73.5
-72.108584 40.069744 -73.9
-72.108478 40.078192 -72.8
-72.136537 40.0783 -73.1
-72.134762 40.318074 -63.4
-72.156711 40.114063 -70.0
-72.191344 40.269433 -61.8
-72.201397 40.197365 -68.4
-71.899621 40.295152 -69.4
-71.928597 40.289803 -65.2
-71.95592 40.296345 -64.0
-71.974774 40.294903 -63.3
-72.011157 40.404346 -65.6
-71.69973 40.66299 -71.4
-72.165445 40.729377 -44.7
-72.154048 40.240422 -65.6
-71.901265 40.147865 -76.7
-71.940117 40.137147 -76.5
-71.659822 40.543165 -73.5
-72.092026 40.746125 -44.1
-71.840155 40.776899 -48.2
-71.879168 40.772361 -40.8
-71.87241 40.778391 -39.9
-71.906729 40.783421 -40.6
-71.909442 40.580195 -58.2
-71.965733 40.570345 -59.8
-72.058815 40.690776 -48.7
-72.053332 40.698971 -49.4
-71.985463 40.201796 -65.7
-71.938005 40.224896 -68.3
-71.900091 40.236004 -71.5
-71.892803 40.586981 -59.4
-71.920073 40.718849 -48.6
-71.596009 40.645853 -71.8
-71.611545 40.636967 -72.5
-71.615705 40.644115 -72.8
-71.626988 40.64588 -71.5
-71.652939 40.636666 -71.2
-72.03292 40.126714 -70.5
-72.059911 40.260231 -62.9
-71.901259 40.155792 -76.3
-71.901092 40.179558 -76.9
-71.920504 40.183339 -75.4
-72.012032 40.333675 -63.1
-72.040174 40.34135 -63.1
-72.077929 40.334522 -62.0
-72.115525 40.337626 -61.8
-71.936523 40.346142 -65.7
-71.964841 40.343016 -64.7
-71.653506 40.56764 -73.9
-72.144578 40.255272 -63.9
-72.218877 40.341606 -61.2
-72.186933 40.36997 -63.5
-71.819904 40.568276 -64.4
-72.18042 40.464758 -56.4
-72.18992 40.451572 -59.6
-72.171566 40.396223 -63.9
-72.190345 40.392034 -64.0
-72.111167 40.708531 -44.8
-71.94403 40.585728 -55.5
-71.99209 40.59673 -55.8
-71.83825 40.616604 -57.8
-72.180195 40.472516 -59.4
-72.208235 40.496935 -58.6
-71.94438 40.794032 -41.1
-71.544421 40.498825 -75.9
-71.701305 40.560864 -71.1
-72.028167 40.72649 -47.4
-72.090348 40.726064 -45.4
-72.100714 40.726039 -45.7
-71.95637 40.264495 -64.4
-71.690466 40.507217 -74.9
-72.153826 40.267677 -63.0
-72.163221 40.2697 -62.4
-71.649883 40.596412 -73.5
-71.619557 40.615481 -72.9
-71.895697 40.626806 -53.4
-71.670607 40.57897 -73.5
-71.703855 40.582947 -67.6
-71.773722 40.525386 -68.7
-71.805993 40.527602 -69.0
-71.630068 40.685872 -71.0
-71.946537 40.30639 -63.8
-71.993486 40.313294 -62.4
-71.750865 40.766603 -57.1
-71.687349 40.782848 -62.8
-71.724392 40.7746 -59.9
-72.173651 40.157631 -69.8
-72.192215 40.162037 -70.7
-72.013574 40.580619 -56.1
-72.076444 40.581836 -53.9
-72.011087 40.420257 -67.0
-72.077535 40.417531 -63.4
-72.207996 40.532926 -55.3
-71.773338 40.664582 -59.5
-71.903683 40.500771 -66.5
-72.198624 40.555421 -53.2
-72.051083 40.194196 -66.5
-72.114695 40.426123 -61.5
-72.010866 40.444063 -65.1
-71.879527 40.495243 -67.8
-71.9632 40.48749 -63.7
-71.963125 40.499442 -64.1
-71.982001 40.489542 -63.8
-72.105114 40.447673 -59.3
-72.198296 40.582547 -52.1
-71.897583 40.681441 -52.7
-71.928109 40.678002 -49.9
-71.54464 40.506122 -75.8
-71.627913 40.506579 -75.8
-71.523831 40.523292 -73.8
-72.142693 40.451672 -58.4
-72.185842 40.625181 -49.8
-71.926876 40.539431 -62.4
-71.976483 40.536125 -61.1
-71.970414 40.677005 -50.5
-71.986548 40.08897 -76.8
-72.086027 40.47082 -59.1
-72.114192 40.478711 -58.2
-72.016833 40.672993 -50.8
-71.594204 40.537546 -74.3
-71.925118 40.554309 -61.7
-72.003244 40.684526 -49.1
-71.574966 40.522827 -75.2
-71.619518 40.527721 -74.6
-71.621738 40.531296 -74.4
-72.207588 40.661355 -47.4
-72.076491 40.478984 -58.9
-71.981401 40.553389 -58.2
-71.971247 40.5628 -58.9
-71.998126 40.55445 -57.5
-71.930904 40.120448 -80.7
-71.940069 40.132936 -78.1
-72.03572 40.669571 -50.6
-72.040134 40.676926 -50.3
-71.780359 40.536555 -69.2
-72.164223 40.153016 -70.0
-72.183498 40.082622 -73.3
-72.221052 40.080846 -75.0
-72.192912 40.090299 -73.3
-72.077407 40.382463 -63.9
-72.096255 40.374754 -63.1
-72.011554 40.365147 -64.2
-72.112889 40.590312 -53.2
-72.124996 40.593198 -52.5
-72.009758 40.608822 -54.2
-72.127954 40.632373 -50.4
-71.908192 40.412314 -69.4
-71.917933 40.405077 -69.0
-71.822299 40.607143 -60.0
-71.759091 40.622985 -61.8
-71.729664 40.713588 -61.4
-71.782103 40.7142 -56.7
-72.051418 40.142777 -68.5
-72.014145 40.150969 -67.9
-71.684684 40.637558 -72.0
-71.788156 40.741684 -55.5
-71.805471 40.736037 -54.9
-72.005577 40.549759 -59.3
-72.023217 40.166285 -66.3
-71.908725 40.375101 -67.6
-71.92769 40.367108 -66.2
-71.93502 40.370841 -67.1
-71.955024 40.376958 -67.3
-72.216294 40.675788 -46.6
-72.224919 40.690158 -45.2
-72.197243 40.713449 -47.2
-71.620716 40.705027 -70.0
-71.636977 40.714994 -68.9
-72.155405 40.075544 -73.5
-72.034925 40.772242 -42.7
-72.153388 40.314485 -62.9
-72.101212 40.501411 -57.8
-72.125201 40.099247 -70.4
-71.822543 40.538654 -69.2
-71.699274 40.557167 -71.5
-71.698569 40.678485 -69.7
-71.719064 40.678174 -65.0
-72.123324 40.513083 -55.9
-71.862678 40.657084 -55.1
-72.042479 40.112561 -71.7
-72.070655 40.112039 -71.3
-72.155805 40.644209 -49.7
-72.089991 40.065317 -74.0
-71.928814 40.269743 -68.0
-71.974852 40.283378 -64.4
-72.162557 40.350465 -62.5
-72.002254 40.375583 -65.7
-72.211549 40.092932 -74.3
-72.09625 40.39889 -64.4
-72.105758 40.387654 -63.1
-72.068894 40.620976 -52.6
-71.74579 40.600536 -64.5
-71.776113 40.616771 -61.7
-71.740229 40.731514 -60.0
-71.954535 40.417366 -67.8
-71.753512 40.64876 -62.9
-71.791487 40.64284 -58.9
-71.683037 40.652436 -72.1
-71.69528 40.6558 -70.3
-71.808993 40.724656 -53.7
-72.126521 40.15941 -64.0
-72.182077 40.250561 -63.1
-72.16083 40.546104 -54.3
-72.174629 40.727577 -45.0
-72.139383 40.772813 -44.0
-72.056918 40.791761 -41.5
-72.20992 40.314501 -60.2
-72.220116 40.197783 -68.2
-72.067557 40.408957 -63.9
-72.081993 40.41567 -63.0
-72.083038 40.661621 -51.1
-72.189537 40.502454 -57.3
-71.766997 40.688881 -57.7
-71.824389 40.697989 -54.9
-72.19937 40.441427 -59.9
-72.144812 40.23855 -64.6
-71.625905 40.538616 -74.7
-71.534581 40.559188 -71.3
-71.571353 40.551482 -74.5
-72.107256 40.736914 -44.7
-72.014872 40.756468 -44.1
-71.926443 40.764137 -41.4
-71.962933 40.756537 -46.2
-71.974032 40.757326 -46.0
-71.876996 40.768661 -41.8
-72.110189 40.49968 -58.2
-72.06848 40.68954 -48.6
-72.154194 40.693872 -46.0
-71.956929 40.208441 -68.1
-71.618235 40.630901 -72.2
-72.069841 40.709206 -49.0
-71.860537 40.584871 -62.1
-71.891119 40.722541 -47.6
-71.926745 40.730038 -49.2
-71.620005 40.65118 -71.2
-71.628349 40.665327 -71.3
-72.110576 40.586643 -53.1
-72.197352 40.782768 -41.8
-72.170642 40.790369 -42.1
-72.042468 40.128808 -69.9
-71.930019 40.167144 -79.6
-71.930067 40.182789 -75.1
-71.614405 40.571912 -73.6
-72.117668 40.125266 -68.2
-72.136371 40.125191 -68.5
-72.136168 40.132038 -68.2
-72.087282 40.340668 -62.4
-72.134376 40.333749 -62.5
-71.964941 40.334886 -64.7
-72.125405 40.257386 -63.7
-72.16336 40.254197 -63.5
-72.209404 40.380184 -63.3
-71.800134 40.570151 -65.6
-71.826461 40.579243 -63.8
-71.699335 40.715276 -69.1
-72.05947 40.301172 -61.5
-72.171069 40.458952 -58.0
-71.595545 40.593651 -74.5
-71.833977 40.609115 -59.6
-71.892428 40.603584 -55.6
-71.924087 40.606528 -54.0
-72.199127 40.493015 -57.2
-72.208188 40.492923 -57.1
-72.000843 40.507492 -62.0
-72.016833 40.516314 -60.5
-72.04096 40.765167 -43.3
-72.124585 40.765741 -44.5
-71.984477 40.180079 -68.5
-71.966473 40.194818 -69.5
-71.940291 40.649363 -52.0
-71.939735 40.786612 -41.4
-72.033667 40.064895 -74.4
-71.600451 40.495154 -76.6
-72.085966 40.718756 -46.0
-72.088155 40.722403 -46.5
-72.142339 40.726041 -46.3
-71.888397 40.758222 -44.4
-71.893669 40.761686 -42.2
-71.928978 40.257807 -66.7
-71.984642 40.258048 -62.5
-72.022037 40.296255 -63.3
-71.620027 40.585142 -74.6
-71.664393 40.585917 -75.1
-71.58595 40.611151 -73.7
-71.642356 40.60159 -73.0
-71.637052 40.610026 -72.1
-71.587325 40.631298 -72.5
-71.945363 40.606614 -53.6
-71.8935 40.623181 -54.0
-71.900493 40.216444 -74.4
-72.106173 40.57919 -54.6
-71.727411 40.552227 -69.3
-71.762363 40.559355 -67.9
-71.668412 40.575312 -74.3
-71.71007 40.575508 -67.9
-72.161036 40.533182 -57.3
-72.051179 40.166421 -66.9
-71.983356 40.362839 -65.3
-71.930693 40.368889 -66.4
-72.191385 40.669139 -47.0
-72.176479 40.713627 -46.4
-72.014394 40.092008 -75.3
-72.037111 40.775853 -41.7
-72.061993 40.065154 -73.5
-72.021398 40.332355 -62.8
-72.094319 40.504786 -59.3
-72.071065 40.085678 -72.4
-72.172888 40.224114 -64.8
-71.66852 40.680661 -71.4
-72.132943 40.502752 -57.6
-72.142208 40.638853 -49.7
-71.630432 40.668886 -71.4
-72.106041 40.355535 -62.5
-72.030352 40.378446 -65.4
-72.030413 40.382454 -65.0
-72.201965 40.135002 -72.2
-72.201854 40.142792 -72.2
-72.124509 40.384782 -62.9
-72.124445 40.392814 -63.4
-72.121378 40.39845 -63.8
-72.065637 40.633068 -52.4
-71.724972 40.722943 -61.3
-71.732681 40.726598 -60.6
-71.992259 40.412121 -67.0
-71.93557 40.423325 -68.5
-71.99204 40.431146 -66.5
-71.917072 40.439677 -68.2
-71.81726 40.633679 -60.1
-71.709224 40.749131 -62.3
-72.098834 40.108294 -71.8
-72.115996 40.775994 -42.6
-72.116538 40.769774 -44.2
-72.024573 40.789822 -41.0
-72.096845 40.78871 -44.2
-72.06474 40.071097 -72.7
-72.108186 40.105958 -72.2
-72.181733 40.306557 -61.0
-72.200506 40.328982 -63.4
-72.086441 40.563799 -54.8
-72.115684 40.560515 -54.7
-72.182818 40.17932 -69.8
-72.191921 40.185992 -69.1
-71.699119 40.522078 -72.7
-72.001787 40.412532 -67.1
-72.067951 40.402999 -64.8
-72.194582 40.505332 -56.1
-72.189476 40.50641 -56.2
-71.806224 40.685014 -55.0
-71.830952 40.691556 -56.0
-71.670223 40.701093 -69.7
-72.171164 40.439322 -61.0
-72.027478 40.742512 -45.0
-72.135305 40.235875 -65.3
-72.135267 40.239927 -64.3
-72.048017 40.489148 -61.2
-72.047925 40.497131 -61.2
-71.550543 40.551474 -74.1
-71.586369 40.559441 -73.7
-71.596262 40.558757 -74.2
-72.101373 40.744334 -44.0
-71.904297 40.762261 -41.1
-71.955795 40.761915 -44.9
-71.887142 40.768791 -40.5
-71.908748 40.769765 -40.1
-72.068986 40.298439 -61.6
-71.928451 40.577203 -57.2
-72.087786 40.496541 -58.5
-72.085602 40.499219 -58.0
-72.133082 40.485583 -56.6
-72.151822 40.493761 -57.0
-72.060979 40.694493 -47.2
-72.106608 40.29063 -62.5
-72.003004 40.306519 -63.4
-71.956623 40.232671 -65.7
-71.63656 40.626659 -72.3
-72.028792 40.710179 -48.8
-71.995776 40.568436 -58.1
-71.993859 40.582486 -56.4
-71.878399 40.718894 -48.2
-71.906328 40.730449 -49.1
-71.958817 40.731985 -48.0
-72.097443 40.25828 -63.1
-71.911552 40.151322 -75.7
-71.939822 40.157955 -79.7
-71.985877 40.156533 -68.7
-72.014264 40.147005 -68.2
-72.04026 40.349441 -63.0
-72.143874 40.341557 -62.9
-71.945998 40.342203 -65.3
-72.209676 40.351362 -60.7
-71.898879 40.358123 -68.1
-71.898946 40.358142 -67.5
-71.747462 40.568536 -68.1
-71.734554 40.581916 -66.7
-71.811796 40.572029 -64.2
-71.72695 40.586391 -66.4
-72.217825 40.498643 -58.5
-72.003191 40.511181 -61.1
-71.995668 40.620224 -53.6
-71.918762 40.733811 -49.7
-71.925326 40.745007 -46.1
-71.933527 40.74111 -48.7
-71.937819 40.748582 -45.0
-71.985599 40.194043 -68.2
-71.994677 40.195854 -67.5
-71.914568 40.64095 -52.3
-71.906486 40.644903 -52.9
-71.947766 40.782496 -41.7
-71.880993 40.792976 -39.8
-71.673465 40.50002 -74.1
-72.13491 40.730556 -45.0
-71.890428 40.756269 -44.0
-71.910229 40.254799 -69.0
-71.899502 40.283271 -69.8
-71.6558 40.658916 -71.0
-72.097276 40.282427 -63.2
-71.630218 40.59859 -73.1
-71.648742 40.612295 -73.1
-71.654403 40.603892 -73.8
-71.601042 40.619187 -73.3
-72.09737 40.581843 -54.8
-72.128596 40.581826 -53.7
-71.830814 40.517575 -67.6
-71.670918 40.544542 -73.9
-71.616491 40.697733 -70.6
-71.955638 40.316545 -64.1
-71.814149 40.750599 -56.8
-72.220394 40.151142 -71.1
-72.023056 40.174113 -67.1
-71.982611 40.440346 -67.0
-72.179101 40.735183 -44.4
-72.171592 40.756949 -44.0
-72.192968 40.75803 -43.6
-72.210961 40.753234 -43.3
-72.039048 40.571297 -54.9
-72.042001 40.169716 -66.2
-72.107571 40.179921 -65.0
-72.208366 40.511271 -57.6
-72.195102 40.523823 -55.2
-71.935079 40.476379 -66.1
-71.8346 40.50685 -67.1
-71.848548 40.512604 -68.2
-71.812199 40.782263 -52.1
-71.714625 40.788714 -61.4
-71.752451 40.786592 -57.7
-72.18914 40.554048 -52.8
-72.013497 40.194654 -66.5
-72.021687 40.197421 -65.6
-72.114776 40.42205 -61.8
-72.123898 40.433184 -59.3
-72.011072 40.436115 -66.0
-72.001337 40.437354 -66.1
-72.020524 40.436401 -65.0
-72.020247 40.444335 -64.4
-71.837858 40.494289 -67.8
-71.916281 40.486099 -66.8
-71.910469 40.529735 -64.2
-71.830802 40.789783 -48.5
-72.08615 40.442242 -61.6
-72.169984 40.573087 -54.0
-72.179409 40.582185 -53.7
-72.198405 40.570923 -51.3
-71.841125 40.673675 -55.1
-71.883638 40.677694 -54.8
-72.107524 40.192251 -65.8
-72.145138 40.192648 -68.4
-71.94101 40.07054 -78.5
-71.958625 40.068437 -80.8
-71.653653 40.515232 -75.0
-71.989737 40.523453 -61.8
-71.843672 40.539468 -67.8
-72.161786 40.437858 -60.7
-72.076796 40.450714 -60.2
-72.000862 40.470392 -63.3
-72.177848 40.646928 -49.3
-72.198788 40.64692 -48.2
-72.197999 40.662445 -47.3
-72.201021 40.65052 -48.1
-71.874668 40.53926 -65.0
-71.93996 40.544462 -61.1
-71.969561 40.680961 -48.6
-71.876038 40.697333 -53.0
-71.99781 40.693312 -48.4
-72.116633 40.216773 -65.7
-71.940407 40.107856 -77.4
-72.161322 40.468416 -59.0
-71.587758 40.544421 -74.5
-71.857026 40.561526 -63.6
-71.837375 40.71993 -53.5
-72.116461 40.234217 -65.6
-71.577036 40.52641 -75.0
-72.069564 40.218006 -64.8
-72.135463 40.219673 -65.4
-72.019866 40.472192 -62.7
-72.076327 40.483028 -58.8
-71.912087 40.117926 -79.6
-71.995474 40.12765 -72.7
-72.047726 40.672423 -50.5
-72.068374 40.372176 -63.3
-72.002107 40.383708 -66.6
-71.945135 40.413333 -68.9
-71.802321 40.713375 -54.8
-71.70378 40.722715 -65.4
-72.154836 40.146899 -69.1
-71.819776 40.620174 -59.1
-71.82935 40.741186 -55.0
-71.675862 40.535259 -74.5
-71.955957 40.304406 -64.3
-71.917265 40.451177 -68.8
-72.168945 40.753041 -44.4
-72.065296 40.580072 -54.2
-72.198771 40.532098 -54.9
-71.78625 40.651324 -59.3
-71.787948 40.776727 -56.7
-71.82728 40.772555 -51.0
-71.735704 40.788878 -58.7
-71.793814 40.789536 -55.6
-72.004333 40.188963 -67.5
-72.051277 40.186218 -65.2
-72.105455 40.419623 -62.7
-72.161872 40.42915 -59.6
-71.991396 40.473171 -63.3
-71.858653 40.494597 -66.9
-71.863603 40.52086 -66.1
-71.962317 40.529664 -62.0
-72.207599 40.58882 -53.3
-71.898461 40.677836 -53.5
-72.041573 40.202713 -66.0
-72.066963 40.208392 -64.1
-71.536828 40.510394 -75.4
-72.088342 40.215106 -65.4
-72.076718 40.462825 -60.4
-72.104859 40.463684 -59.1
-72.133302 40.451212 -58.6
-72.207046 40.656386 -47.9
-71.897869 40.543146 -62.5
-71.90618 40.539963 -63.4
-71.908539 40.543632 -62.6
-71.986771 40.536109 -60.7
-71.844108 40.557688 -63.7
-71.902053 40.688977 -50.6
-71.995555 40.689507 -48.3
-71.921879 40.086129 -79.8
-71.921691 40.109048 -77.4
-72.114256 40.470622 -58.3
-72.000873 40.491484 -62.8
-72.027495 40.67329 -50.0
-71.581586 40.533546 -74.7
-71.579889 40.548146 -73.7
-71.852401 40.553985 -63.3
-71.852667 40.554274 -63.1
-72.003425 40.245781 -62.7
-72.041333 40.235581 -61.9
-71.598051 40.526838 -74.4
-71.606084 40.522166 -74.7
-72.060249 40.231648 -64.4
-72.029425 40.474153 -61.5
-71.851884 40.709027 -54.7
-71.986173 40.108817 -75.6
-71.921524 40.12054 -81.4
-72.072025 40.678021 -48.5
-71.766974 40.548864 -67.2
-72.134131 40.371024 -63.7
-72.011351 40.384676 -65.2
-72.020891 40.396346 -65.4
-71.986508 40.394955 -69.0
-71.800106 40.622279 -59.6
-72.126832 40.139696 -66.3
-71.828905 40.618182 -58.9
-71.757493 40.742564 -58.2
-71.779975 40.745884 -56.3
-72.013858 40.162852 -66.9
-71.993075 40.351386 -64.0
-71.960763 40.382925 -68.7
-72.199116 40.699221 -45.5
-72.2178 40.695774 -45.7
-71.651625 40.704691 -70.2
-71.651881 40.74009 -68.2
-72.164711 40.078717 -73.0
-72.015569 40.087515 -77.8
-72.106866 40.30493 -62.9
-72.120708 40.311566 -62.8
-72.040617 40.504367 -61.7
-72.051879 40.09895 -71.8
-72.108392 40.097839 -70.8
-72.127087 40.096289 -70.4
-72.145943 40.089119 -72.1
-72.142193 40.500824 -57.8
-71.718828 40.502878 -71.4
-71.828614 40.513941 -67.5
-71.667251 40.520703 -74.9
-71.884177 40.658914 -53.9
-71.939155 40.664647 -52.3
-71.95645 40.658533 -50.6
-71.799498 40.673795 -54.8
-71.789275 40.677017 -55.2
-72.042701 40.100361 -72.3
-72.015902 40.636533 -51.3
-72.038123 40.639265 -51.8
-72.0722 40.643693 -51.5
-72.12549 40.646056 -49.6
-72.117007 40.649165 -50.3
-72.087124 40.352821 -62.3
-72.107609 40.605032 -52.1
-72.112573 40.607146 -52.4
-71.696133 40.762325 -64.2
-72.174739 40.122457 -70.9
-72.173731 40.145849 -70.3
-72.029839 40.625055 -53.4
-71.973517 40.417763 -67.3
-71.944846 40.44501 -68.1
-71.804879 40.647806 -59.6
-71.692427 40.738932 -66.9
-71.722681 40.735548 -61.6
-72.079586 40.158929 -65.6
-72.135905 40.150985 -64.9
-71.898927 40.398775 -70.2
-72.067537 40.549411 -55.3
-72.114903 40.54148 -55.7
-72.107067 40.546174 -55.8
-72.141863 40.533851 -58.4
-72.160966 40.537532 -55.6
-72.103484 40.782738 -42.7
-72.118073 40.069911 -73.6
-72.144023 40.317215 -63.9
-72.164466 40.11391 -70.1
-72.200753 40.282538 -61.2
-72.181228 40.32779 -63.8
-72.210953 40.179337 -70.0
-72.220241 40.186101 -68.5
-72.036625 40.653904 -50.3
-72.189281 40.505282 -56.6
-71.783784 40.699789 -55.5
-72.218249 40.450022 -59.9
-72.160898 40.722294 -46.4
-72.144773 40.234308 -64.6
-71.635824 40.537815 -74.8
-71.557279 40.562635 -73.5
-71.591831 40.551668 -74.6
-71.951514 40.754726 -45.4
-71.998905 40.764551 -44.3
-71.881479 40.776038 -39.7
-71.928549 40.767935 -41.0
-71.964381 40.569023 -59.0
-71.9605 40.578712 -58.5
-71.94752 40.21166 -69.6
-71.975719 40.202488 -66.0
-71.581716 40.639348 -71.7
-72.065427 40.70184 -48.5
-71.657322 40.644277 -70.7
-72.20006 40.769432 -42.8
-71.555346 40.576877 -72.7
-71.575891 40.576866 -73.7
-71.652042 40.582848 -73.4
-72.190837 40.356362 -62.9
-72.190579 40.364237 -63.8
-72.208804 40.35277 -61.5
-72.171719 40.376648 -62.4
-72.209392 40.371964 -63.3
-71.679395 40.593683 -71.1
-72.078185 40.310664 -61.9
-71.996165 40.586241 -56.5
-71.878079 40.6147 -56.8
-72.199418 40.453411 -59.6
-72.019585 40.500264 -61.9
-72.112302 40.762463 -44.0
-71.967264 40.746579 -47.7
-71.985535 40.197777 -67.7
-71.928195 40.646255 -52.0
-72.024269 40.061476 -75.2
-72.105067 40.733281 -44.9
-71.882624 40.761372 -44.0
-71.910443 40.755013 -44.5
-71.975513 40.241085 -66.3
-71.984949 40.237991 -66.9
-71.900007 40.255677 -70.9
-71.929092 40.261818 -65.8
-71.975335 40.256442 -63.2
-72.106658 40.270116 -63.4
-72.116238 40.278122 -63.9
-72.012601 40.285848 -63.6
-72.045124 40.290705 -62.8
-72.190165 40.411875 -59.6
-72.209152 40.404806 -58.8
-71.560077 40.602613 -71.9
-71.577386 40.632003 -72.4
-71.950691 40.60682 -53.6
-71.835491 40.629298 -59.8
-71.752285 40.559205 -68.0
-71.807535 40.564582 -65.5
-71.730184 40.5744 -66.9
-71.694899 40.68979 -69.6
-71.684526 40.549851 -73.4
-71.983997 40.310578 -62.8
-71.668904 40.76889 -66.7
-71.686129 40.768923 -64.1
-71.719947 40.767378 -61.1
-72.220297 40.155042 -71.1
-71.93532 40.455963 -68.3
-72.192107 40.739296 -44.1
-72.225194 40.742379 -44.0
-72.169079 40.753302 -44.3
-72.004305 40.582677 -56.2
-72.027706 40.569488 -56.2
-72.098136 40.177454 -63.4
-72.161886 40.415798 -60.8
-72.020399 40.424374 -64.9
-71.790528 40.658829 -58.8
-71.850742 40.516254 -67.6
-71.794473 40.787133 -56.3
-72.126433 40.183026 -66.0
-72.135972 40.175115 -68.0
-72.105255 40.431656 -60.4
-71.907164 40.498768 -66.6
-71.948957 40.50701 -65.0
-71.940663 40.510857 -65.7
-72.114526 40.434231 -59.6
-72.133404 40.438381 -59.1
-72.217494 40.559736 -52.1
-72.16829 40.595796 -51.1
-71.932513 40.670833 -50.9
-72.041459 40.206871 -65.9
-72.079131 40.210931 -64.9
-72.088409 40.20692 -64.3
-71.902281 40.071791 -79.7
-71.94076 40.07879 -81.3
-71.580869 40.514816 -74.9
-72.08613 40.454475 -59.6
-72.123864 40.457337 -58.3
-72.123751 40.46133 -58.5
-72.17134 40.618356 -50.4
-71.866045 40.542215 -64.9
-71.967325 40.67858 -49.7
-71.862792 40.692562 -56.0
-71.982932 40.68573 -48.0
-72.126222 40.206665 -67.5
-71.931263 40.089268 -79.0
-71.850242 40.550349 -65.0
-71.929351 40.561298 -59.3
-72.116447 40.24288 -65.0
-72.116311 40.247286 -64.1
-71.594001 40.519649 -75.0
-71.587528 40.526127 -74.5
-72.078848 40.231028 -65.3
-72.107179 40.22502 -64.8
-72.047978 40.473242 -61.4
-72.048203 40.477214 -59.7
-71.975686 40.552289 -57.8
-71.862556 40.70963 -54.3
-72.15291 40.368964 -62.9
-72.005158 40.601366 -54.4
-72.003697 40.60708 -54.9
-72.014041 40.616441 -53.0
-72.011412 40.388601 -64.6
-71.698988 40.626886 -68.2
-72.055165 40.615296 -53.4
-71.739118 40.712059 -59.8
-71.749015 40.711584 -59.4
-71.813379 40.714442 -54.7
-72.042218 40.149196 -66.5
-72.051404 40.138822 -69.1
-72.14575 40.13851 -68.5
-71.691194 40.648469 -70.2
-71.703449 40.6342 -68.4
-71.735765 40.741323 -60.5
-72.012177 40.52612 -59.6
-72.051607 40.154632 -66.7
-71.983353 40.358808 -65.2
-71.945568 40.38163 -69.0
-71.973858 40.379402 -68.0
-71.679429 40.611327 -73.8
-71.630502 40.704133 -70.0
-71.660914 40.738071 -68.0
-72.040502 40.325089 -62.7
-72.115605 40.323749 -63.3
-72.091919 40.08383 -73.1
-72.107487 40.512472 -56.6
-71.708463 40.502695 -73.1
-71.729756 40.503653 -70.0
-71.740632 40.504965 -69.2
-71.921259 40.65218 -51.7
-71.932546 40.653649 -51.7
-71.794303 40.682325 -55.1
-72.091578 40.641387 -51.9
-72.132193 40.639709 -50.5
-72.160528 40.634981 -49.0
-71.909941 40.279771 -69.9
-71.956176 40.27244 -65.3
-72.096552 40.354668 -62.7
-72.152965 40.353413 -60.5
-71.692996 40.762973 -63.6
-71.689605 40.76595 -64.5
-72.202318 40.09601 -73.4
-72.183656 40.122135 -70.4
-72.075927 40.632476 -51.9
-71.808718 40.601649 -61.9
-72.201166 40.232216 -64.3
-72.172724 40.243672 -63.2
-72.043375 40.543827 -56.5
-72.03472 40.563683 -55.2
-72.106376 40.780121 -43.3
-72.080522 40.07615 -72.7
-72.108384 40.114108 -70.1
-72.136229 40.104113 -72.5
-72.210151 40.273624 -61.5
-72.210006 40.29406 -61.0
-72.200534 40.313468 -59.6
-72.102909 40.55628 -55.0
-72.000057 40.523367 -60.8
-71.928392 40.293865 -66.1
-71.965327 40.29834 -63.1
-71.732072 40.525397 -69.3
-72.058303 40.403471 -64.8
-72.046862 40.65344 -49.7
-71.775344 40.685237 -57.3
-71.772024 40.690387 -56.6
-71.909436 40.349645 -67.2
-72.171175 40.45498 -57.4
-72.00013 40.749115 -44.9
-71.619018 40.544427 -74.6
-71.567853 40.562963 -73.4
-71.607626 40.560477 -73.8
-72.116799 40.735247 -44.6
-72.002233 40.752857 -44.7
-72.008977 40.763893 -43.5
-71.925029 40.623456 -52.9
-71.937799 40.575295 -57.2
-72.104612 40.495911 -57.7
-72.002937 40.302481 -63.7
-71.975913 40.214041 -68.9
-71.646144 40.625275 -72.1
-72.036959 40.706426 -49.8
-71.88641 40.732086 -50.0
-71.595081 40.66129 -70.7
-72.089963 40.586823 -53.7
-72.19106 40.772069 -42.7
-71.883863 40.745536 -46.5
-72.050391 40.266237 -63.5
-72.078709 40.254995 -63.0
-71.976404 40.163686 -67.6
-71.985707 40.160503 -67.5
-71.995107 40.162033 -66.8
-71.604712 40.573065 -74.1
-71.627568 40.576645 -73.9
-71.619068 40.579495 -73.7
-71.629816 40.580167 -74.1
-71.561646 40.587821 -73.1
-71.557935 40.598957 -71.7
-72.218871 40.37867 -63.7
-71.908964 40.354476 -66.0
-71.700833 40.595077 -68.6
-71.716047 40.708238 -63.8
-71.586344 40.594417 -74.3
-71.615518 40.590828 -73.7
-71.915984 40.591362 -57.1
-71.918312 40.595064 -56.0
-71.946477 40.590173 -56.4
-71.894605 40.607298 -55.9
-72.189665 40.486788 -57.1
-72.023483 40.510589 -60.3
-72.139444 40.755835 -44.8
-71.98774 40.624341 -53.4
-71.985494 40.172339 -68.3
-71.910988 40.196611 -75.7
-71.920574 40.191155 -76.7
-71.832972 40.642453 -58.3
-71.859409 40.634381 -54.9
-71.885791 40.645339 -54.9
-71.836105 40.789836 -47.5
-72.05239 40.062651 -74.0
-71.919864 40.241663 -68.0
-71.929025 40.249816 -67.7
-71.583914 40.499075 -76.1
-71.640383 40.499732 -75.7
-72.062035 40.730831 -47.4
-71.899805 40.754736 -45.2
-71.928958 40.265774 -66.9
-72.097212 40.270355 -63.5
-72.209157 40.392514 -60.4
-71.660986 40.615111 -74.1
-71.594717 40.626173 -72.8
-71.597029 40.629842 -73.0
-71.940063 40.6066 -53.6
-71.85057 40.619673 -58.5
-72.147091 40.578096 -53.5
-72.154914 40.573757 -54.1
-71.723461 40.563166 -68.6
-71.79167 40.520569 -67.9
-71.791762 40.525905 -68.4
-71.636766 40.67953 -71.3
-71.650164 40.667277 -70.9
-71.91913 40.307795 -65.7
-71.95576 40.320581 -64.9
-71.954238 40.441682 -67.6
-72.18998 40.735652 -44.1
-72.194277 40.74291 -44.0
-72.05341 40.577713 -54.0
-72.098448 40.169485 -64.7
-72.095947 40.410964 -62.7
-72.103794 40.406028 -62.1
-72.067512 40.41884 -64.0
-72.198932 40.512623 -57.6
-72.180067 40.520679 -55.9
-71.778849 40.656415 -60.3
-71.860112 40.502301 -67.5
-71.925962 40.507938 -66.6
-71.709316 40.788589 -62.1
-72.015361 40.194343 -66.2
-72.095963 40.427045 -61.2
-72.039056 40.446917 -62.9
-71.919126 40.52661 -64.1
-71.951388 40.528637 -62.7
-71.949427 40.064765 -80.4
-72.143129 40.435378 -59.6
-72.198232 40.598036 -49.8
-72.179215 40.608297 -51.3
-71.835936 40.682545 -57.0
-71.908103 40.682108 -50.3
-72.118485 40.185912 -65.3
-72.003881 40.209191 -67.2
-71.902262 40.067846 -79.7
-71.912506 40.084659 -80.6
-71.513755 40.523622 -72.1
-71.547143 40.527997 -75.0
-72.020313 40.456262 -62.6
-72.133382 40.464094 -59.5
-72.191224 40.651425 -48.6
-71.870538 40.54961 -65.3
-71.996462 40.534712 -60.1
-71.991073 40.681887 -49.7
-71.901834 40.103801 -76.9
-71.977037 40.105268 -80.3
-71.976751 40.109179 -76.9
-72.095247 40.4712 -58.9
-72.029167 40.489825 -61.3
-71.863459 40.555224 -63.1
-71.867896 40.562646 -63.3
-71.9067 40.557884 -61.2
-72.126307 40.682089 -48.0
-72.01756 40.691568 -48.6
-71.970072 40.716412 -45.8
-72.15422 40.221012 -67.0
-72.154253 40.224883 -66.4
-72.013079 40.238106 -64.9
-72.069442 40.238148 -63.8
-71.612742 40.533316 -74.5
-72.144812 40.225856 -66.6
-71.966422 40.553667 -57.4
-71.848792 40.582724 -61.3
-71.886679 40.715372 -47.9
-71.934927 40.122518 -79.0
-71.974377 40.333405 -63.9
-72.174178 40.098379 -71.6
-72.211582 40.084624 -74.7
-72.014241 40.607133 -54.2
-72.017055 40.603947 -53.4
-72.019516 40.607097 -54.0
-72.030388 40.38646 -63.6
-72.08686 40.389446 -63.1
-71.673659 40.619297 -71.5
-71.763327 40.63049 -63.1
-71.753318 40.63096 -62.9
-71.688283 40.731193 -67.7
-71.821865 40.623929 -60.1
-71.733622 40.73765 -60.8
-72.032395 40.525364 -58.8
-72.06716 40.531255 -57.1
-72.087236 40.530263 -56.5
-72.123863 40.521908 -55.7
-71.964724 40.351116 -64.6
-71.974164 40.35638 -65.1
-71.813382 40.592421 -63.1
-72.214128 40.672185 -46.9
-72.192716 40.688488 -46.1
-72.168029 40.71623 -46.5
-72.203521 40.706296 -46.6
-71.664568 40.726485 -69.7
-72.106619 40.307002 -62.6
-72.049836 40.326125 -62.6
-72.073944 40.508016 -58.1
-72.220117 40.201683 -67.5
-71.659317 40.770032 -65.8
-71.70831 40.677507 -69.3
-72.109687 40.516144 -56.4
-71.785025 40.509672 -68.6
-71.881924 40.655164 -53.9
-71.872416 40.656375 -54.9
-71.748262 40.674874 -58.0
-72.033253 40.102039 -73.0
-72.103953 40.645168 -51.0
-72.157939 40.647847 -49.0
-72.058961 40.354674 -62.6
-72.105788 40.363546 -62.4
-71.713456 40.756417 -62.3
-72.192848 40.106263 -72.0
-72.183689 40.126713 -71.8
-72.19711 40.133007 -72.0
-72.124384 40.388789 -62.8
-72.04504 40.633087 -53.1
-71.744457 40.61614 -62.2
-71.735762 40.723467 -60.2
-71.71212 40.648982 -67.0
-71.762213 40.645824 -60.9
-71.700705 40.734738 -66.4
-71.927268 40.396075 -69.8
-72.191494 40.23778 -64.0
-72.191514 40.257544 -62.7
-72.166184 40.782869 -42.5
-72.045726 40.790422 -41.7
-72.080463 40.072247 -74.1
-72.125131 40.324735 -63.2
-72.144037 40.322468 -65.6
-72.143837 40.329354 -64.3
-72.136579 40.107877 -70.1
-72.143211 40.10776 -70.4
-72.209901 40.302218 -60.1
-72.220283 40.182245 -68.8
-72.19216 40.193967 -68.9
-72.182677 40.205628 -67.4
-71.974896 40.291128 -64.1
-71.727906 40.517828 -69.4
-71.738504 40.518619 -68.7
-72.051157 40.660573 -51.1
-71.724092 40.651596 -64.0
-71.725936 40.689379 -62.0
-71.74609 40.688851 -59.0
-71.903626 40.136218 -80.1
-72.137005 40.734294 -44.3
-71.971787 40.753732 -47.0
-71.994522 40.757104 -44.8
-71.847762 40.772066 -49.8
-71.894075 40.779757 -39.7
-72.073845 40.289777 -62.4
-72.097279 40.286441 -63.6
-71.545282 40.577088 -71.4
-72.132952 40.498474 -57.4
-71.98516 40.209846 -67.7
-71.956795 40.220579 -67.0
-71.966226 40.224243 -64.3
-72.004624 40.70474 -50.4
-72.021225 40.71504 -47.1
-71.925929 40.721052 -48.0
-71.936344 40.72968 -47.6
-72.211622 40.771482 -42.1
-72.213661 40.775059 -41.7
-72.172934 40.794074 -41.8
-72.041149 40.25599 -63.4
-72.059931 40.264317 -63.0
-72.078834 40.251012 -63.3
-71.920993 40.151919 -78.5
-71.930107 40.163253 -80.0
-71.945253 40.161464 -76.0
-71.976295 40.155955 -70.0
-72.15503 40.119393 -69.6
-72.023514 40.138947 -71.6
-72.021108 40.348319 -64.0
-72.068684 40.339458 -62.3
-72.096558 40.346632 -62.1
-72.153235 40.33789 -63.4
-72.116247 40.26045 -63.9
-72.19964 40.348387 -61.9
-72.181397 40.353003 -62.4
-72.213017 40.3586 -62.3
-71.993253 40.339975 -63.7
-71.751773 40.575944 -67.7
-71.731347 40.593841 -66.5
-72.180473 40.460977 -57.7
-72.105498 40.716659 -46.5
-71.90305 40.586909 -58.3
-71.908473 40.734222 -50.0
-72.189654 40.479008 -59.1
-72.208782 40.476847 -57.0
-72.217839 40.490501 -57.1
-72.048596 40.760647 -43.3
-71.947978 40.172855 -77.4
-71.957129 40.192274 -73.1
-71.595198 40.499254 -75.9
-71.673568 40.49652 -74.3
-72.037648 40.725151 -47.7
-71.863503 40.763747 -46.7
-71.876079 40.750286 -48.8
-71.956701 40.236663 -65.8
-71.937643 40.253918 -65.4
-71.657836 40.662555 -70.8
-72.059492 40.29295 -62.2
-72.199698 40.415647 -57.9
-72.171191 40.431505 -60.1
-72.209141 40.424524 -58.0
-71.60929 40.615953 -73.2
-71.996421 40.603924 -56.0
-71.874957 40.626825 -53.7
-72.087575 40.583132 -54.1
-72.135063 40.57541 -53.9
-71.672818 40.582648 -73.5
-71.722409 40.57898 -67.1
-71.781189 40.520333 -68.9
-71.988908 40.315134 -63.3
-71.818496 40.757924 -53.8
-71.704616 40.776381 -65.0
-71.753148 40.770123 -57.8
-72.170042 40.16352 -69.6
-71.963645 40.443385 -67.5
-71.991821 40.454115 -64.4
-71.897986 40.469538 -66.2
-72.216369 40.727949 -44.3
-72.221708 40.730216 -43.3
-72.196591 40.746466 -43.5
-72.189298 40.530082 -54.8
-71.811313 40.658742 -56.2
-71.93144 40.512682 -66.0
-71.699121 40.784342 -63.6
-71.735161 40.792812 -57.1
-72.164039 40.17649 -69.7
-72.001562 40.445615 -65.0
-72.038931 40.442834 -63.4
-71.871638 40.499249 -67.1
-71.963233 40.483476 -63.6
-71.991559 40.509053 -62.3
-71.955552 40.518395 -63.0
-72.19856 40.559312 -53.8
-72.188937 40.569968 -52.0
-72.188951 40.573993 -53.3
-72.179387 40.597109 -51.0
-71.91332 40.677911 -50.8
-72.135755 40.187109 -65.9
-72.057666 40.212537 -65.4
-71.949005 40.072606 -80.5
-71.949103 40.076476 -78.9
-71.967855 40.071801 -78.9
-71.54881 40.513761 -75.8
-71.589691 40.512468 -75.1
-71.646308 40.503029 -75.8
-71.978395 40.521175 -61.4
-72.029302 40.466275 -62.7
-72.151997 40.462727 -59.1
-72.188449 40.626245 -49.4
-72.194532 40.639672 -48.6
-71.935427 40.536887 -62.3
-71.967375 40.677197 -49.7
-71.996249 40.673286 -50.7
-71.921871 40.089937 -78.9
-71.94056 40.103687 -76.0
-71.967526 40.107281 -79.5
-72.019763 40.484225 -62.6
-71.602367 40.533902 -74.4
-71.90888 40.561517 -58.5
-72.119588 40.670911 -50.0
-72.14095 40.671722 -50.6
-72.159853 40.668686 -48.0
-71.915523 40.711408 -47.6
-71.839605 40.723541 -53.4
-72.050474 40.246176 -63.6
-71.600231 40.530374 -74.3
-71.631405 40.530246 -74.5
-71.987201 40.554175 -58.0
-71.869499 40.703838 -52.5
-71.940203 40.120493 -79.1
-72.096326 40.66691 -51.4
-71.762397 40.535989 -70.7
-72.164028 40.164795 -69.6
-72.011871 40.361239 -63.8
-72.146383 40.594335 -51.9
-71.715809 40.620233 -67.0
-72.051065 40.607455 -52.8
-71.755337 40.705437 -57.9
-71.808871 40.706839 -55.1
-71.701552 40.718999 -67.7
-72.154988 40.139071 -69.3
-71.69683 40.640725 -71.2
-72.094197 40.524633 -56.6
-72.142029 40.52143 -55.6
-72.016483 40.533689 -58.6
-71.804213 40.59426 -64.3
-71.815813 40.595999 -63.0
-72.204307 40.673594 -46.9
-72.167859 40.698708 -46.0
-72.190774 40.702371 -46.6
-72.014488 40.095936 -75.6
-72.023886 40.771514 -42.5
-72.012182 40.321772 -63.6
-72.09641 40.085983 -75.3
-72.146075 40.097353 -70.9
-71.824694 40.542385 -69.5
-71.821265 40.5158 -67.8
-71.890536 40.652578 -54.3
-71.925679 40.659683 -51.6
-71.750512 40.678526 -57.7
-72.080208 40.107572 -71.5
-72.047232 40.636843 -52.7
-72.101753 40.641548 -50.9
-72.112514 40.641718 -50.1
-71.683979 40.759068 -66.5
-71.946745 40.270667 -65.9
-71.974996 40.279515 -64.3
-72.097106 40.615465 -52.2
-72.110248 40.603582 -52.5
-72.211538 40.097068 -74.1
-72.192585 40.134174 -72.1
-72.114962 40.389515 -62.9
-72.083222 40.627293 -51.9
-71.721631 40.612647 -65.5
-71.801818 40.607949 -58.8
-71.750565 40.731153 -58.5
-71.926909 40.437655 -68.0
-72.210586 40.224547 -63.9
-71.811313 40.728414 -53.2
-71.685762 40.744513 -67.3
-72.098492 40.153618 -64.3
-72.098428 40.165527 -65.4
-71.927465 40.387786 -67.2
-72.160936 40.502969 -57.1
-72.191419 40.265494 -61.7
-72.187766 40.73201 -44.2
-72.084494 40.785453 -42.5
-72.03355 40.073143 -76.8
-72.139403 40.320274 -64.2
-72.210112 40.285868 -61.0
-72.172393 40.310029 -61.3
-72.190941 40.320796 -60.9
-72.20984 40.326782 -62.6
-72.173389 40.173234 -69.5
-72.173459 40.184898 -69.4
-71.919397 40.284296 -66.8
-71.753776 40.526819 -68.7
-72.020985 40.411132 -67.0
-72.033423 40.665921 -50.6
-71.743907 40.685071 -58.8
-71.742157 40.699379 -60.1
-71.826619 40.684217 -56.3
-71.909111 40.337892 -66.4
-72.075022 40.492137 -59.7
-71.661948 40.564309 -74.4
-72.160067 40.73823 -44.7
-71.946769 40.763232 -44.6
-71.965128 40.76014 -45.7
-71.962764 40.582528 -57.1
-72.108064 40.495922 -57.6
-72.098087 40.686759 -47.5
-72.106441 40.294755 -62.2
-72.153518 40.29891 -62.3
-72.031294 40.306925 -62.8
-71.920214 40.226179 -70.7
-71.994428 40.225796 -64.3
-71.632299 40.619503 -72.6
-71.591687 40.63857 -72.2
-72.07438 40.716531 -47.1
-71.989321 40.574944 -59.3
-71.904083 40.726713 -48.2
-71.844362 40.749036 -51.1
-71.62628 40.6618 -71.0
-71.63583 40.660722 -72.1
-72.17697 40.783402 -42.3
-72.023553 40.131178 -71.2
-72.097582 40.262297 -63.5
-71.94803 40.168992 -72.3
-72.115505 40.341121 -61.7
-71.918414 40.342934 -65.5
-71.955427 40.344755 -65.1
-71.636702 40.573926 -73.7
-72.031419 40.28329 -63.5
-72.178122 40.373828 -63.9
-71.82219 40.57189 -64.3
-71.698746 40.591439 -69.3
-71.739032 40.589389 -66.5
-71.765033 40.598182 -63.1
-71.705752 40.708296 -67.9
-71.723272 40.702818 -62.9
-72.190459 40.396006 -59.9
-72.113332 40.712181 -46.7
-71.584303 40.590849 -74.1
-71.905103 40.590598 -57.0
-71.913851 40.605117 -55.0
-71.922695 40.602567 -53.9
-72.170764 40.478436 -59.3
-72.199124 40.481194 -58.4
-72.198988 40.48513 -57.5
-72.028067 40.500734 -62.4
-72.072961 40.766256 -43.3
-72.11609 40.751292 -44.6
-72.100987 40.760914 -44.0
-71.942494 40.74056 -48.4
-71.954436 40.742104 -47.2
-71.997819 40.745443 -44.9
-71.990021 40.74969 -45.4
-71.938503 40.178955 -77.1
-71.947997 40.180597 -75.9
-71.938428 40.18315 -77.5
-71.848645 40.791013 -44.1
-71.862631 40.789883 -40.7
-71.579264 40.494392 -75.7
-72.119974 40.723086 -45.2
-71.859292 40.756349 -48.7
-72.116183 40.269294 -63.1
-72.040333 40.292725 -62.9
-71.628005 40.612378 -73.0
-71.656472 40.60767 -74.0
-71.592323 40.622473 -73.1
-71.861965 40.621467 -56.0
-72.108278 40.58294 -54.3
-72.142758 40.570793 -55.5
-71.733726 40.563186 -68.2
-71.819624 40.550207 -66.2
-71.714403 40.582922 -67.3
-71.720236 40.575286 -67.4
-71.82705 40.667362 -54.4
-71.796648 40.524227 -68.2
-71.811271 40.518986 -67.6
-71.801499 40.522497 -67.9
-71.656781 40.678497 -69.3
-71.928522 40.306003 -64.8
-71.965113 40.314617 -64.7
-71.899341 40.322703 -66.9
-71.784728 40.753587 -56.4
-71.810065 40.761197 -55.0
-71.816326 40.754272 -55.6
-71.897872 40.477351 -67.7
-72.169581 40.736574 -45.0
-72.200907 40.753652 -43.4
-72.029884 40.573011 -55.8
-72.070197 40.173216 -63.9
-72.152688 40.407989 -61.1
-72.058073 40.427721 -62.2
-72.086377 40.421873 -64.3
-71.762241 40.663396 -61.3
-71.869391 40.513185 -67.0
-71.820901 40.779536 -50.6
-71.756862 40.794036 -55.5
-71.772072 40.784861 -57.6
-71.772672 40.789363 -56.4
-72.170198 40.541426 -54.6
-72.198666 40.54764 -53.9
-72.155984 40.16959 -68.4
-72.154648 40.174245 -68.4
-72.095103 40.196284 -66.2
-72.107568 40.184051 -65.3
-72.105311 40.427639 -61.4
-72.001496 40.441518 -65.7
-72.057979 40.439903 -62.7
-71.991434 40.476959 -63.7
-72.188782 40.590045 -52.3
-72.188677 40.598145 -50.0
-72.17699 40.610584 -50.5
-71.926031 40.677547 -50.1
-72.116976 40.186315 -65.6
-72.04164 40.215095 -66.4
-72.060316 40.203215 -64.9
-72.07917 40.21492 -65.1
-71.958564 40.072537 -79.1
-71.977337 40.074459 -82.0
-71.503194 40.506142 -72.6
-71.51748 40.512711 -73.5
-71.625738 40.503054 -75.7
-71.629996 40.510129 -75.6
-71.635777 40.502457 -75.5
-71.642275 40.513563 -75.3
-71.54299 40.520947 -74.9
-72.001301 40.462113 -63.5
-71.950899 40.545203 -59.9
-71.835502 40.560788 -64.3
-71.932455 40.688452 -50.4
-71.923909 40.691549 -50.2
-71.901826 40.111859 -77.7
-72.133032 40.481249 -57.2
-72.029178 40.493778 -60.4
-71.849395 40.566196 -62.8
-71.902025 40.550624 -63.2
-72.137004 40.682409 -47.1
-72.154419 40.676559 -47.7
-71.939591 40.707447 -47.7
-71.555749 40.525003 -75.0
-71.582947 40.518624 -74.7
-71.585122 40.522413 -74.6
-72.000574 40.68091 -50.4
-71.974661 40.559659 -58.3
-71.833025 40.712634 -54.6
-71.967279 40.128086 -75.2
-72.098701 40.670667 -49.6
-72.093703 40.679567 -48.7
-72.115087 40.377349 -62.9
-72.141814 40.586801 -52.5
-72.158097 40.596357 -51.5
-72.077285 40.398532 -65.0
-72.062057 40.609429 -52.5
-72.09223 40.608112 -52.5
-72.070505 40.136432 -69.2
-71.824866 40.733547 -54.9
-72.020916 40.523612 -59.9
-72.160905 40.52449 -54.8
-72.135589 40.783633 -43.0
-72.028495 40.778995 -42.3
-72.039196 40.77955 -41.8
-72.115775 40.316765 -62.7
-72.094508 40.507794 -57.7
-72.201203 40.216733 -64.9
-72.173027 40.231994 -64.5
-71.683973 40.563162 -73.6
-71.662565 40.758071 -66.8
-71.663607 40.77714 -64.9
-71.72522 40.670707 -64.5
-71.736265 40.514909 -69.0
-71.986473 40.639416 -52.1
-72.023814 40.11168 -75.4
-72.005708 40.654341 -52.9
-71.605648 40.679627 -69.3
-71.928814 40.281767 -65.5
-71.984486 40.278281 -64.0
-72.134281 40.354349 -62.2
-72.134292 40.358515 -62.1
-72.105447 40.383621 -63.3
-72.115084 40.393584 -64.0
-72.152818 40.384528 -62.2
-72.141353 40.603115 -52.3
-72.011555 40.629266 -52.5
-72.073519 40.62869 -52.2
-72.085158 40.630826 -52.4
-71.793514 40.611054 -59.8
-71.722625 40.719285 -61.9
-71.963846 40.419429 -66.8
-71.907689 40.445289 -68.7
-71.926856 40.433552 -68.4
-71.823939 40.644587 -59.3
-72.077613 40.773909 -43.0
-72.099345 40.775372 -43.1
-72.191583 40.241755 -63.2
-72.219881 40.240533 -61.1
-72.210242 40.265471 -61.2
-72.086172 40.545766 -55.4
-72.080091 40.115433 -70.0
-72.120913 40.777044 -43.1
-72.002388 40.787337 -40.7
-72.080663 40.068336 -73.5
-72.071162 40.081617 -72.9
-72.127276 40.07225 -73.1
-72.126951 40.115971 -68.1
-72.164605 40.106121 -71.3
-72.200626 40.298032 -60.1
-72.190989 40.305149 -60.0
-72.162827 40.333085 -63.6
-72.173487 40.177095 -70.5
-72.210747 40.187526 -69.2
-72.009985 40.522412 -59.9
-71.909791 40.283949 -68.5
-71.984403 40.286342 -64.1
-72.011159 40.412296 -67.0
-72.029602 40.41521 -66.4
-72.010224 40.66179 -51.0
-72.038864 40.657612 -51.3
-72.087263 40.651707 -50.0
-72.084913 40.665287 -50.4
-72.168123 40.505119 -58.5
-71.705844 40.655671 -70.4
-71.750618 40.696359 -57.9
-71.898754 40.34632 -68.6
-72.02967 40.7463 -43.8
-72.125933 40.249569 -64.1
-71.565829 40.559493 -73.8
-71.582066 40.551871 -73.8
-72.151136 40.740458 -44.4
-72.004574 40.756526 -44.5
-71.986371 40.760893 -44.9
-72.176453 40.337746 -63.5
-72.078883 40.68916 -48.1
-72.128602 40.685778 -47.8
-72.012321 40.309814 -62.7
-71.994714 40.210793 -68.1
-71.910307 40.238146 -70.4
-71.616085 40.627148 -71.7
-72.077202 40.704128 -47.4
-71.966208 40.72704 -45.5
-71.595242 40.574407 -74.6
-72.05912 40.338186 -62.1
-72.049578 40.345914 -62.8
-72.077807 40.338493 -61.8
-72.115452 40.334171 -62.8
-72.116205 40.264858 -63.8
-72.21873 40.37477 -62.1
-71.690788 40.595583 -71.8
-71.718897 40.590202 -66.7
-71.762858 40.59446 -64.5
-71.932899 40.584559 -56.1
-71.836177 40.61284 -58.0
-71.846095 40.612337 -58.0
-71.887043 40.612295 -56.3
-72.208543 40.48489 -56.6
-72.029025 40.50537 -62.1
-72.057807 40.758378 -44.5
-71.976143 40.167589 -67.1
-71.994924 40.177099 -68.1
-71.900703 40.187455 -75.5
-71.993374 40.184141 -69.3
-71.837341 40.649834 -55.5
-71.929894 40.787554 -41.7
-71.919769 40.233957 -70.7
-71.611198 40.495868 -76.0
-71.642042 40.495616 -75.8
-71.734268 40.493973 -70.9
-71.708508 40.5547 -71.0
-71.853381 40.764024 -48.7
-71.984721 40.246031 -64.7
-71.919611 40.260941 -67.4
-71.947104 40.262704 -64.9
-71.699133 40.504578 -74.7
-72.040816 40.296666 -62.8
-72.218502 40.398187 -60.4
-72.218443 40.413788 -57.9
-72.171216 40.427631 -58.7
-72.199701 40.423611 -58.6
-71.911138 40.200744 -75.4
-71.643311 40.585151 -73.1
-71.607079 40.612215 -73.3
-71.621571 40.601703 -73.2
-71.927198 40.61002 -54.1
-71.976457 40.605411 -55.3
-71.900429 40.208705 -74.9
-71.929711 40.206421 -73.2
-72.032434 40.594988 -53.7
-71.716859 40.551939 -69.9
-71.71575 40.567908 -69.1
-71.829086 40.677373 -56.6
-71.680354 40.542501 -73.6
-71.899093 40.314856 -71.0
-71.951473 40.33134 -64.4
-71.673234 40.77601 -64.8
-71.793923 40.769105 -56.4
-72.220758 40.135592 -71.8
-72.174728 40.161459 -69.9
-71.916793 40.466685 -66.9
-71.96355 40.455351 -66.4
-71.991868 40.46179 -64.1
-72.203932 40.724408 -45.0
-72.214383 40.724277 -44.7
-72.151339 40.551385 -54.0
-72.060899 40.572933 -53.6
-72.055551 40.581305 -54.2
-72.069729 40.570719 -53.7
-72.114953 40.401723 -62.7
-72.16198 40.402592 -61.5
-72.179937 40.532821 -54.7
-72.18494 40.533198 -54.8
-71.944438 40.480579 -65.0
-71.805635 40.771297 -55.7
-71.831661 40.779924 -48.6
-71.767363 40.78928 -56.8
-72.145486 40.167584 -67.1
-72.160651 40.167567 -68.8
-72.154592 40.17819 -68.3
-72.032326 40.195868 -66.2
-72.060608 40.191013 -65.1
-72.090473 40.198387 -66.5
-72.001351 40.449754 -64.2
-72.02966 40.43839 -64.3
-72.076832 40.442681 -61.3
-71.944444 40.48456 -64.3
-71.981015 40.491578 -63.9
-71.873832 40.520604 -65.9
-71.914565 40.519246 -64.4
-72.013436 40.20261 -66.4
-71.922156 40.070802 -78.6
-71.967808 40.080145 -82.0
-71.60157 40.514727 -75.0
-71.660858 40.509862 -75.0
-71.521634 40.519814 -73.6
-71.893303 40.535924 -63.6
-71.864906 40.696405 -55.1
-71.930354 40.684808 -49.3
-71.967836 40.084329 -81.2
-71.967669 40.090606 -77.7
-72.095469 40.475234 -58.6
-71.893778 40.55411 -63.6
-71.88561 40.557721 -62.0
-71.904342 40.554249 -62.9
-71.96575 40.709023 -46.8
-71.980123 40.715812 -46.7
-71.644447 40.517243 -75.2
-72.200174 40.666111 -47.2
-72.154239 40.217145 -66.5
-71.968436 40.557281 -57.7
-71.901645 40.119918 -78.5
-72.112076 40.675636 -48.6
-71.983983 40.318615 -63.7
-72.145183 40.159224 -67.9
-72.211743 40.068139 -75.0
-72.202446 40.076638 -73.9
-72.068229 40.380288 -64.0
-72.127277 40.596865 -52.3
-72.03 40.607327 -53.3
-71.917578 40.412794 -68.8
-71.70631 40.62175 -68.5
-71.748943 40.623535 -61.8
-71.798053 40.618485 -60.3
-71.75516 40.703881 -58.0
-72.154791 40.142977 -68.9
-71.794853 40.735737 -54.6
-71.815824 40.7359 -54.8
-72.114201 40.523416 -55.7
-72.006447 40.53407 -59.2
-72.012916 40.54467 -59.3
-71.973883 40.375497 -66.8
-71.625035 40.712244 -69.6
-71.644464 40.744788 -68.6
-72.01343 40.771272 -42.8
-72.019986 40.782447 -42.1
-72.053187 40.768134 -43.2
-72.106513 40.302936 -63.0
-72.125142 40.312801 -62.4
-72.00239 40.322789 -63.7
-72.036259 40.504267 -61.8
-72.116039 40.095211 -71.3
-72.127385 40.084372 -72.2
-71.688824 40.561417 -72.5
-71.675184 40.674336 -69.7
-71.694805 40.514637 -74.2
-71.701383 40.508223 -73.8
-71.70341 40.511945 -72.9
-71.797028 40.512405 -67.9
-71.813499 40.505833 -68.5
-72.01033 40.645127 -51.8
-72.063629 40.646907 -50.5
-72.136504 40.647064 -49.6
-72.008033 40.658041 -52.0
-71.609015 40.667702 -71.7
-71.97521 40.271812 -65.0
-72.049092 40.365632 -63.1
-72.077829 40.350449 -62.5
-72.002371 40.36743 -65.4
-72.202143 40.111624 -72.9
-72.19226 40.14612 -71.4
-72.095539 40.630554 -51.5
-71.719475 40.608908 -65.7
-71.91768 40.428227 -69.3
-71.992412 40.419668 -67.5
-71.809029 40.63729 -59.5
-72.201153 40.228336 -64.3
-71.719261 40.748678 -61.8
-72.085955 40.770706 -42.7
-72.191583 40.2496 -62.6
-72.021383 40.558902 -57.1
-72.125565 40.771755 -44.1
-72.0733 40.784086 -41.6
-72.052243 40.074742 -74.0
-72.089738 40.081917 -72.3
-72.146254 40.076844 -73.4
-72.108356 40.101903 -71.0
-72.219329 40.287154 -60.6
-72.095164 40.560513 -55.1
-71.729706 40.521706 -69.5
-72.030008 40.410488 -66.4
-72.012469 40.66551 -50.4
-71.739532 40.660138 -63.1
-71.827922 40.495525 -68.3
-72.189951 40.447613 -58.5
-72.02292 40.734973 -46.0
-72.048854 40.743661 -45.4
-71.948253 40.145797 -75.8
-71.621388 40.548066 -74.6
-71.636916 40.556965 -74.6
-71.638992 40.560662 -74.3
-72.02395 40.754072 -44.9
-71.939938 40.752335 -44.8
-71.94461 40.759565 -44.8
-71.881599 40.568321 -59.9
-71.900972 40.583275 -58.6
-71.975 40.567939 -60.3
-72.123465 40.489224 -57.1
-72.161155 40.485569 -57.0
-72.090145 40.690906 -47.2
-72.145841 40.696995 -45.9
-72.106438 40.298819 -62.4
-72.125541 40.285044 -62.8
-71.653056 40.619425 -72.6
-71.833025 40.590249 -59.9
-71.870963 40.724047 -48.6
-71.87541 40.731158 -49.0
-71.932246 40.722313 -47.3
-71.630488 40.634001 -72.0
-71.629363 40.649514 -71.4
-72.066254 40.599152 -53.4
-72.17484 40.779846 -42.5
-72.222203 40.789157 -39.7
-72.050433 40.258217 -62.8
-72.023475 40.142814 -68.9
-72.032978 40.138992 -70.3
-72.011987 40.341572 -63.4
-72.0969 40.338618 -62.1
-72.106052 40.343515 -62.1
-72.134262 40.34201 -63.0
-71.974305 40.337144 -64.8
-71.647864 40.575412 -74.2
-71.66005 40.578631 -74.2
-71.551538 40.588041 -71.4
-71.57258 40.588716 -74.1
-72.171686 40.364853 -62.1
-71.741293 40.593119 -66.0
-71.697108 40.711571 -69.9
-72.154611 40.711411 -47.3
-71.611317 40.583673 -74.2
-71.958578 40.749326 -47.9
-71.96262 40.169703 -68.6
-71.955342 40.777985 -42.3
-71.986882 40.779057 -42.1
-71.90045 40.790882 -40.8
-71.995566 40.793473 -41.4
-71.703583 40.556344 -71.2
-72.148847 40.719499 -45.7
-71.861195 40.760072 -49.0
-71.975219 40.252617 -63.9
-72.106552 40.282461 -63.8
-72.021959 40.292287 -63.6
-71.575205 40.628334 -72.7
-71.94408 40.603156 -54.1
-72.008605 40.589772 -55.1
-71.786809 40.564683 -67.8
-71.817676 40.564596 -65.0
-71.82923 40.671175 -55.4
-71.672845 40.687907 -71.5
-71.622002 40.689505 -68.6
-71.675054 40.779643 -64.1
-71.745721 40.775428 -58.3
-72.2112 40.146473 -72.1
-72.193563 40.153317 -70.9
-72.0046 40.168696 -67.9
-71.992015 40.434965 -66.2
-72.201924 40.738294 -43.7
-72.182385 40.757921 -43.8
-72.124498 40.400878 -62.8
-71.74624 40.789039 -57.1
-72.17054 40.537454 -56.2
-71.825258 40.78693 -49.1
-72.004275 40.184866 -68.9
-72.01347 40.19071 -67.2
-72.023137 40.189871 -65.5
-72.13371 40.421289 -60.4
-71.891853 40.497976 -67.7
-71.934831 40.492629 -65.0
-71.9692 40.50657 -64.2
-71.958492 40.064345 -79.6
-72.169945 40.569176 -53.8
-72.198271 40.586411 -53.9
-72.197996 40.601897 -50.1
-72.013256 40.210566 -67.2
-71.912726 40.068166 -79.4
-71.986609 40.069865 -80.9
-71.996484 40.499939 -62.7
-71.530784 40.51775 -74.6
-71.525706 40.526944 -74.0
-71.562099 40.518039 -75.2
-72.114581 40.454464 -58.6
-71.859081 40.547768 -65.8
-71.998254 40.537656 -59.5
-71.982934 40.546984 -59.5
-71.986659 40.674286 -52.4
-71.882113 40.68993 -53.5
-71.958255 40.084979 -81.8
-71.976951 40.097531 -78.1
-72.114067 40.482702 -57.5
-72.133249 40.472686 -57.9
-72.017013 40.499389 -61.5
-71.937932 40.558209 -59.3
-71.975737 40.708415 -47.3
-71.560115 40.532621 -74.9
-71.572966 40.519202 -75.1
-72.216619 40.665819 -47.2
-72.07902 40.223015 -65.4
-71.854173 40.712744 -53.8
-72.087247 40.668804 -49.6
-71.729809 40.538972 -70.6
-72.192881 40.078375 -73.9
-72.173909 40.094449 -72.4
