-118.493169 33.388281 -67.7
-118.635999 33.482619 -190.2
-118.511707 33.49182 -241.4
-118.447236 33.431535 -17.8
-118.559821 33.423691 -91.4
-118.552504 33.429749 -80.5
-118.553393 33.430955 -75.0
-118.533008 33.498117 -267.0
-118.565268 33.433191 -40.2
-118.487087 33.47597 -239.6
-118.493793 33.479129 -234.1
-118.507338 33.38572 -245.1
-118.513369 33.386547 -215.8
-118.581247 33.450395 -11.3
-118.534831 33.423421 -86.0
-118.543339 33.42813 -73.2
-118.5222 33.394128 -212.1
-118.585505 33.454662 -9.8
-118.589347 33.456757 -17.8
-118.604488 33.470009 -21.9
-118.570898 33.434908 -64.0
-118.549892 33.502592 -276.1
-118.575615 33.500628 -256.0
-118.608067 33.47315 -29.3
-118.507452 33.400075 -96.9
-118.587997 33.457162 -13.7
-118.598966 33.457801 -69.5
-118.59741 33.459432 -64.0
-118.599335 33.45954 -67.7
-118.594252 33.459723 -25.6
-118.5422 33.433544 -19.7
-118.540756 33.434305 -9.4
-118.565846 33.434619 -21.9
-118.612445 33.476111 -87.8
-118.609631 33.476764 -56.7
-118.607845 33.476981 -25.6
-118.577091 33.442565 -53.0
-118.577344 33.443351 -54.9
-118.573173 33.444368 -12.5
-118.574968 33.44459 -20.1
-118.446022 33.456482 -274.3
-118.608106 33.456851 -95.1
-118.607653 33.458545 -89.6
-118.587197 33.434598 -102.4
-118.552768 33.403638 -415.1
-118.584383 33.445845 -76.8
-118.435377 33.427894 -1.8
-118.607561 33.464209 -80.5
-118.611261 33.465284 -78.6
-118.622806 33.467883 -91.4
-118.618148 33.482144 -131.7
-118.542667 33.432888 -25.6
-118.550529 33.433177 -60.4
-118.555718 33.416944 -164.6
-118.533475 33.473509 0.0
-118.572898 33.411783 -431.6
-118.5276 33.422913 -84.1
-118.6254 33.461004 -100.6
-118.619759 33.462401 -96.9
-118.623034 33.463807 -95.1
-118.620909 33.464529 -93.3
-118.486454 33.386414 -36.6
-118.487637 33.392392 -34.7
-118.626689 33.482558 -181.1
-118.516677 33.495326 -274.3
-118.447747 33.431463 -5.8
-118.565679 33.425596 -91.4
-118.552426 33.427141 -86.0
-118.563943 33.431983 -71.3
-118.628959 33.486767 -214.0
-118.57588 33.424885 -182.9
-118.543395 33.38125 -385.9
-118.538347 33.381759 -363.9
-118.511663 33.387395 -206.7
-118.593566 33.449579 -87.8
-118.6103 33.446101 -166.4
-118.602955 33.448237 -117.0
-118.606823 33.44884 -128.0
-118.543145 33.423727 -87.8
-118.542806 33.425691 -84.1
-118.621636 33.483856 -182.9
-118.516749 33.390706 -230.4
-118.507502 33.391203 -107.9
-118.606945 33.467857 -32.9
-118.609895 33.468701 -58.5
-118.509394 33.395984 -111.6
-118.566629 33.499769 -256.0
-118.457919 33.43611 -3.7
-118.585349 33.425808 -214.0
-118.519631 33.398981 -155.4
-118.569759 33.436891 -25.6
-118.529666 33.50085 -290.8
-118.556171 33.500597 -267.0
-118.58841 33.500558 -248.7
-118.61247 33.473581 -82.3
-118.608928 33.473686 -31.1
-118.60837 33.474783 -29.3
-118.590449 33.458009 -17.8
-118.590533 33.459248 -13.3
-118.563643 33.433899 -20.1
-118.59366 33.461412 -20.1
-118.611973 33.476047 -84.1
-118.616575 33.47835 -100.6
-118.575196 33.442795 -31.1
-118.581841 33.444679 -69.5
-118.575254 33.446095 -18.3
-118.582177 33.447134 -56.7
-118.443399 33.45499 -267.0
-118.609806 33.450323 -133.5
-118.593952 33.435132 -144.5
-118.591869 33.435695 -124.4
-118.58678 33.436559 -95.1
-118.599352 33.439326 -155.4
-118.597052 33.441504 -122.5
-118.619023 33.466726 -84.1
-118.550065 33.403502 -396.8
-118.60118 33.460057 -71.3
-118.606959 33.465182 -69.5
-118.623923 33.467325 -95.1
-118.622225 33.481228 -150.0
-118.487854 33.383722 -42.1
-118.547292 33.42983 -78.6
-118.537395 33.430644 -25.6
-118.550773 33.432363 -71.3
-118.545836 33.432955 -16.9
-118.530264 33.422527 -84.1
-118.618517 33.46539 -82.3
-118.622603 33.46574 -93.3
-118.56649 33.430899 -80.5
-118.489515 33.395309 -53.0
-118.490748 33.397442 -54.9
-118.55804 33.432741 -16.5
-118.573676 33.41753 -376.7
-118.575094 33.420474 -292.6
-118.618948 33.492592 -230.4
-118.50748 33.38805 -182.9
-118.536178 33.421955 -89.6
-118.547145 33.422213 -95.1
-118.538197 33.42231 -91.4
-118.543381 33.427508 -76.8
-118.610695 33.467826 -67.7
-118.531339 33.470959 -7.9
-118.53667 33.499375 -272.5
-118.547172 33.499661 -268.8
-118.534695 33.499767 -276.1
-118.58883 33.429141 -259.7
-118.58476 33.430244 -120.7
-118.60063 33.453923 -91.4
-118.587652 33.45662 -13.7
-118.612659 33.470406 -82.3
-118.605258 33.470779 -23.8
-118.609834 33.471772 -36.6
-118.605258 33.471882 -20.1
-118.576683 33.43834 -76.8
-118.52663 33.500997 -294.4
-118.559768 33.501825 -267.0
-118.59268 33.502653 -252.4
-118.602994 33.501228 -245.1
-118.607578 33.473622 -27.4
-118.607839 33.474894 -25.6
-118.546959 33.392403 -389.5
-118.558148 33.388636 -537.7
-118.564771 33.394875 -528.5
-118.58818 33.457804 -13.3
-118.598205 33.458201 -73.2
-118.593222 33.459729 -21.9
-118.566493 33.435319 -20.1
-118.567079 33.43631 -20.1
-118.611928 33.475514 -84.1
-118.57494 33.445509 -19.2
-118.580516 33.446312 -49.4
-118.51766 33.400142 -135.3
-118.616178 33.451865 -142.6
-118.606031 33.451893 -109.7
-118.617406 33.45297 -133.5
-118.458236 33.459673 -263.3
-118.587758 33.475629 -7.9
-118.58828 33.47577 -9.4
-118.460692 33.466359 -305.4
-118.594608 33.434176 -150.0
-118.593719 33.444145 -95.1
-118.598822 33.444651 -115.2
-118.530383 33.409277 -137.2
-118.54192 33.403074 -298.1
-118.61412 33.460223 -93.3
-118.615811 33.465207 -84.1
-118.623967 33.467839 -93.3
-118.627186 33.476417 -131.7
-118.634054 33.479389 -171.9
-118.538036 33.429166 -54.9
-118.536022 33.429524 -20.1
-118.538397 33.430024 -40.2
-118.54807 33.431483 -73.2
-118.49526 33.385214 -75.0
-118.575965 33.497233 -245.1
-118.567007 33.418538 -278.0
-118.551298 33.420788 -104.2
-118.562543 33.428883 -86.0
-118.529345 33.428441 -69.5
-118.546711 33.421166 -96.9
-118.41222 33.44791 -274.3
-118.487306 33.398892 -25.6
-118.518527 33.494143 -259.7
-118.559984 33.432277 -23.8
-118.495595 33.485179 -256.0
-118.602872 33.442834 -148.1
-118.582424 33.450426 -14.2
-118.582749 33.452129 -11.6
-118.545792 33.494136 -252.4
-118.540245 33.423652 -89.6
-118.511263 33.396703 -122.5
-118.511171 33.39745 -115.2
-118.517555 33.398953 -148.1
-118.582899 33.426821 -137.2
-118.582285 33.431933 -95.1
-118.584674 33.424688 -184.7
-118.530317 33.393145 -303.6
-118.590552 33.451487 -80.5
-118.576835 33.436208 -87.8
-118.579938 33.439245 -86.0
-118.610367 33.473464 -53.0
-118.592908 33.458137 -25.6
-118.587116 33.432344 -120.7
-118.592141 33.433066 -148.1
-118.564354 33.434033 -19.2
-118.572651 33.43381 -78.6
-118.612961 33.476331 -87.8
-118.582424 33.443548 -78.6
-118.617148 33.502025 -252.4
-118.521931 33.401142 -155.4
-118.599283 33.466648 -17.8
-118.610934 33.456882 -96.9
-118.605639 33.459448 -87.8
-118.586972 33.475048 -7.3
-118.539878 33.414641 -157.3
-118.539889 33.416141 -142.6
-118.556973 33.400377 -459.0
-118.606759 33.460598 -87.8
-118.433999 33.427208 -1.5
-118.615953 33.463601 -89.6
-118.614545 33.465154 -80.5
-118.600927 33.465559 -23.8
-118.617056 33.466523 -78.6
-118.622217 33.471161 -95.1
-118.61917 33.480092 -120.7
-118.548765 33.429749 -80.5
-118.532422 33.420008 -91.4
-118.487818 33.38902 -45.7
-118.490571 33.389522 -58.5
-118.561323 33.423671 -91.4
-118.497396 33.393967 -82.3
-118.528317 33.424046 -80.5
-118.532522 33.425833 -80.5
-118.531731 33.425913 -80.5
-118.531467 33.427138 -76.8
-118.548818 33.416991 -146.3
-118.548721 33.418049 -118.9
-118.488709 33.399139 -31.1
-118.494969 33.4 -69.5
-118.525419 33.499589 -283.5
-118.55604 33.432413 -12.2
-118.552857 33.433096 -56.7
-118.621917 33.491992 -232.3
-118.568671 33.420616 -201.2
-118.613081 33.449854 -153.6
-118.534722 33.422169 -87.8
-118.544581 33.42648 -80.5
-118.530381 33.468293 -2.4
-118.505732 33.399803 -93.3
-118.526095 33.385114 -353.0
-118.531433 33.47079 0.9
-118.455167 33.434446 -3.7
-118.575323 33.429674 -93.3
-118.570868 33.43201 -84.1
-118.569376 33.433296 -71.3
-118.587044 33.451184 -54.9
-118.594316 33.45332 -84.1
-118.609342 33.470601 -40.2
-118.525831 33.399975 -193.9
-118.605995 33.471665 -25.6
-118.568459 33.435702 -23.8
-118.572829 33.436071 -75.0
-118.583849 33.436798 -93.3
-118.583094 33.438126 -89.6
-118.578208 33.438715 -82.3
-118.625973 33.499183 -248.7
-118.544656 33.500992 -276.1
-118.590613 33.500161 -245.1
-118.612403 33.474067 -84.1
-118.515677 33.401239 -122.5
-118.588297 33.459487 -5.2
-118.568246 33.433533 -40.2
-118.61127 33.475428 -76.8
-118.608214 33.477514 -32.9
-118.611767 33.478336 -87.8
-118.577447 33.44642 -23.8
-118.599516 33.468398 -14.6
-118.612984 33.503369 -254.2
-118.604845 33.450793 -113.4
-118.613395 33.455293 -117.0
-118.451633 33.459551 -285.3
-118.451186 33.465251 -342.0
-118.582497 33.449379 -20.1
-118.581983 33.449709 -15.1
-118.472425 33.471832 -281.6
-118.443847 33.428624 0.0
-118.602274 33.465743 -27.4
-118.548796 33.429083 -82.3
-118.532275 33.471904 0.0
-118.531981 33.472009 -13.3
-118.533011 33.472912 -2.4
-118.488959 33.3843 -47.5
-118.561937 33.411305 -351.1
-118.531953 33.422405 -86.0
-118.618578 33.460929 -96.9
-118.623592 33.463048 -96.9
-118.618945 33.464559 -89.6
-118.576907 33.496383 -239.6
-118.495352 33.392825 -76.8
-118.639001 33.480289 -177.4
-118.55689 33.425421 -87.8
-118.555904 33.42726 -86.0
-118.487598 33.39587 -29.3
-118.527606 33.425002 -75.0
-118.529303 33.429183 -51.2
-118.527831 33.429841 -16.9
-118.620203 33.486283 -197.5
-118.630792 33.486881 -214.0
-118.622703 33.493275 -234.1
-118.629292 33.493819 -237.7
-118.503707 33.383795 -140.8
-118.591397 33.447323 -89.6
-118.601516 33.441651 -151.8
-118.541728 33.423741 -87.8
-118.534936 33.426644 -80.5
-118.530883 33.46854 -1.8
-118.511027 33.395336 -128.0
-118.507444 33.398872 -98.8
-118.546936 33.498225 -263.3
-118.55362 33.499517 -261.5
-118.576283 33.428308 -102.4
-118.569646 33.43203 -84.1
-118.58713 33.456079 -11.9
-118.458155 33.436346 -3.7
-118.573646 33.438198 -54.9
-118.609153 33.473264 -32.9
-118.615803 33.473739 -91.4
-118.543725 33.390453 -427.9
-118.517338 33.401647 -129.8
-118.537922 33.434266 -6.4
-118.564721 33.433635 -27.4
-118.565309 33.434977 -19.7
-118.579294 33.447726 -17.4
-118.59958 33.46762 -17.4
-118.59886 33.466268 -16.9
-118.588341 33.476769 -19.2
-118.588541 33.441132 -91.4
-118.528011 33.410405 -118.9
-118.530508 33.410871 -131.7
-118.549937 33.409666 -323.7
-118.544658 33.412258 -250.5
-118.604569 33.464451 -62.2
-118.63095 33.475272 -131.7
-118.624839 33.479119 -137.2
-118.499396 33.383392 -87.8
-118.540847 33.429121 -71.3
-118.559318 33.408727 -374.9
-118.554182 33.412185 -294.4
-118.573009 33.404216 -484.6
-118.528561 33.421488 -86.0
-118.486462 33.384434 -36.6
-118.49091 33.385122 -56.7
-118.560471 33.418546 -164.6
-118.563257 33.421988 -113.4
-118.566276 33.423941 -98.8
-118.560298 33.425383 -89.6
-118.560532 33.430824 -64.0
-118.492888 33.394989 -67.7
-118.533575 33.427166 -78.6
-118.533056 33.428352 -64.0
-118.53357 33.428819 -31.1
-118.449978 33.433158 -1.8
-118.628136 33.488447 -219.5
-118.543203 33.494042 -252.4
-118.536761 33.496353 -254.2
-118.546511 33.422863 -91.4
-118.633393 33.485331 -206.7
-118.606759 33.467462 -32.9
-118.558848 33.493714 -246.9
-118.561662 33.493764 -245.1
-118.581733 33.427205 -124.4
-118.596952 33.456765 -78.6
-118.616686 33.469897 -87.8
-118.575559 33.440259 -42.1
-118.607953 33.474142 -29.3
-118.557284 33.391597 -457.2
-118.553962 33.393267 -422.5
-118.593577 33.458984 -25.6
-118.581466 33.442398 -80.5
-118.546145 33.43413 -9.8
-118.549134 33.434224 -17.8
-118.566712 33.434352 -23.8
-118.590513 33.461087 -11.9
-118.596574 33.462076 -27.4
-118.614434 33.476122 -89.6
-118.615975 33.477181 -96.9
-118.577649 33.447132 -20.1
-118.523995 33.406674 -117.0
-118.608481 33.450307 -126.2
-118.612045 33.451182 -137.2
-118.452364 33.459151 -281.6
-118.466319 33.468018 -290.8
-118.585622 33.435237 -95.1
-118.542739 33.406183 -299.9
-118.608725 33.45984 -91.4
-118.615681 33.461004 -93.3
-118.47552 33.473523 -276.1
-118.617098 33.464701 -87.8
-118.618961 33.470692 -91.4
-118.496991 33.382897 -78.6
-118.540925 33.430724 -62.2
-118.545497 33.431346 -53.0
-118.560696 33.40463 -409.7
-118.56519 33.405035 -440.7
-118.574666 33.406349 -491.9
-118.532253 33.420827 -89.6
-118.619678 33.464007 -93.3
-118.618017 33.464609 -86.0
-118.619692 33.465534 -76.8
-118.628373 33.46554 -96.9
-118.489051 33.387336 -51.2
-118.514163 33.493415 -257.9
-118.553612 33.425549 -87.8
-118.559409 33.429771 -82.3
-118.535275 33.474576 -3.7
-118.531292 33.425758 -80.5
-118.489223 33.400017 -31.1
-118.48924 33.401053 -29.3
-118.524507 33.4971 -268.8
-118.533595 33.499233 -274.3
-118.545334 33.381092 -391.4
-118.582316 33.451657 -12.2
-118.548507 33.42178 -98.8
-118.544683 33.423708 -87.8
-118.538061 33.428516 -56.7
-118.607134 33.469618 -38.4
-118.560337 33.499694 -257.9
-118.45595 33.435174 -3.7
-118.582858 33.428158 -120.7
-118.581066 33.432488 -93.3
-118.585663 33.45329 -16.9
-118.461853 33.438319 -4.3
-118.622525 33.495 -241.4
-118.564384 33.500469 -263.3
-118.610128 33.474936 -49.4
-118.593077 33.45754 -29.3
-118.588563 33.459098 -8.8
-118.593149 33.432794 -150.0
-118.591199 33.461079 -16.0
-118.609986 33.476364 -62.2
-118.608545 33.478239 -51.2
-118.576332 33.44397 -40.2
-118.575723 33.444343 -23.8
-118.581627 33.445454 -62.2
-118.599769 33.468068 -17.4
-118.44026 33.453395 -263.3
-118.604795 33.452351 -102.4
-118.606698 33.454259 -100.6
-118.6143 33.455593 -117.0
-118.615864 33.458407 -102.4
-118.454558 33.461376 -289.0
-118.597738 33.436804 -159.1
-118.599897 33.444929 -118.9
-118.53875 33.402481 -272.5
-118.556926 33.403408 -418.8
-118.442479 33.428585 -1.2
-118.615198 33.46519 -82.3
-118.62692 33.470828 -100.6
-118.628048 33.472 -113.4
-118.549459 33.430377 -78.6
-118.549396 33.432321 -71.3
-118.531722 33.41943 -91.4
-118.528458 33.423221 -82.3
-118.619031 33.464012 -91.4
-118.506952 33.491626 -256.0
-118.563121 33.423685 -93.3
-118.549729 33.420663 -102.4
-118.488593 33.401145 -25.6
-118.490434 33.402056 -32.9
-118.496749 33.40257 -73.2
-118.528322 33.466815 -0.3
-118.529525 33.497906 -268.8
-118.511591 33.388772 -153.6
-118.605773 33.438651 -193.9
-118.536497 33.428946 -31.1
-118.601044 33.497092 -203.0
-118.583447 33.452762 -11.9
-118.602158 33.468579 -15.1
-118.615686 33.469201 -87.8
-118.603466 33.469387 -16.0
-118.507438 33.396014 -102.4
-118.531536 33.46902 -0.9
-118.543939 33.498622 -261.5
-118.575235 33.427152 -111.6
-118.586099 33.450368 -54.9
-118.595816 33.455368 -82.3
-118.582758 33.435557 -93.3
-118.574284 33.435677 -82.3
-118.57119 33.436944 -29.3
-118.567776 33.437433 -19.2
-118.580585 33.43859 -87.8
-118.550028 33.500633 -270.7
-118.550393 33.39387 -384.0
-118.588672 33.457254 -15.1
-118.594988 33.460423 -25.6
-118.433721 33.451333 -261.5
-118.538517 33.433794 -20.1
-118.548214 33.433805 -18.7
-118.5469 33.434646 -8.2
-118.553276 33.433666 -21.9
-118.611186 33.478189 -76.8
-118.579347 33.446195 -49.4
-118.602655 33.453459 -93.3
-118.58881 33.476134 -12.2
-118.58323 33.448854 -29.3
-118.589335 33.436468 -104.2
-118.597833 33.443393 -115.2
-118.54914 33.406483 -360.3
-118.584485 33.446193 -78.6
-118.611667 33.464665 -84.1
-118.616534 33.466495 -82.3
-118.601835 33.466509 -21.9
-118.618175 33.479147 -106.1
-118.486581 33.383425 -36.6
-118.545697 33.429944 -76.8
-118.543986 33.43078 -67.7
-118.538514 33.432858 -32.9
-118.540461 33.433038 -40.2
-118.530075 33.417908 -93.3
-118.621581 33.461837 -96.9
-118.621317 33.46509 -89.6
-118.488937 33.385217 -49.4
-118.487851 33.39015 -47.5
-118.495338 33.390361 -78.6
-118.564671 33.423802 -93.3
-118.565104 33.430969 -80.5
-118.529575 33.42666 -76.8
-118.527425 33.427496 -62.2
-118.448575 33.432413 -6.4
-118.486054 33.396972 -23.8
-118.555573 33.431349 -60.4
-118.572007 33.418816 -307.2
-118.623467 33.493728 -234.1
-118.571393 33.423991 -104.2
-118.486584 33.479932 -263.3
-118.605003 33.447151 -129.8
-118.547275 33.42898 -80.5
-118.505344 33.393422 -96.9
-118.605959 33.467962 -29.3
-118.611661 33.469204 -75.0
-118.607561 33.469409 -31.1
-118.520847 33.385886 -329.2
-118.531267 33.46929 -0.3
-118.583983 33.429244 -120.7
-118.578027 33.430866 -95.1
-118.584574 33.451951 -20.1
-118.593947 33.456787 -64.0
-118.461475 33.43798 -4.6
-118.462297 33.439341 -1.8
-118.576026 33.439365 -54.9
-118.5366 33.502769 -294.4
-118.544008 33.387422 -535.8
-118.549796 33.390034 -471.8
-118.554848 33.392959 -437.1
-118.505485 33.401203 -91.4
-118.539361 33.433746 -17.8
-118.549565 33.434394 -15.1
-118.604702 33.475461 -18.7
-118.580472 33.447423 -38.4
-118.58313 33.448262 -43.9
-118.579716 33.448773 -10.4
-118.459325 33.458126 -248.7
-118.581366 33.449048 -20.1
-118.595691 33.441215 -117.0
-118.584669 33.443245 -86.0
-118.612489 33.459573 -93.3
-118.604472 33.46239 -80.5
-118.44303 33.42856 -1.2
-118.619828 33.467145 -76.8
-118.623934 33.477819 -124.4
-118.626898 33.481044 -168.2
-118.620225 33.481169 -131.7
-118.493046 33.38377 -64.0
-118.5356 33.429274 -20.1
-118.537342 33.431158 -20.1
-118.548508 33.433113 -43.9
-118.624198 33.460698 -100.6
-118.489006 33.391834 -51.2
-118.553057 33.420838 -106.1
-118.557398 33.422285 -102.4
-118.551729 33.425616 -87.8
-118.557537 33.427185 -87.8
-118.559346 33.427213 -87.8
-118.559276 33.429119 -84.1
-118.554734 33.429877 -82.3
-118.486251 33.394286 -27.4
-118.544575 33.419155 -106.1
-118.448892 33.432788 -8.8
-118.499035 33.39737 -84.1
-118.529445 33.467454 -0.6
-118.565398 33.431985 -69.5
-118.557984 33.432008 -25.6
-118.552401 33.432319 -69.5
-118.604136 33.444095 -146.3
-118.60306 33.448865 -113.4
-118.550906 33.494278 -254.2
-118.535097 33.429035 -20.1
-118.517332 33.397597 -162.8
-118.541067 33.498983 -265.2
-118.567996 33.430352 -87.8
-118.59031 33.454759 -51.2
-118.4578 33.436291 -3.7
-118.579733 33.44054 -82.3
-118.527491 33.501144 -296.3
-118.543547 33.500644 -270.7
-118.599441 33.501028 -241.4
-118.612831 33.472847 -84.1
-118.604685 33.474436 -17.4
-118.614453 33.4749 -91.4
-118.543881 33.394181 -340.2
-118.552507 33.3959 -378.6
-118.513688 33.401709 -111.6
-118.595447 33.458707 -51.2
-118.590885 33.45972 -13.7
-118.600377 33.433245 -256.0
-118.6066 33.4774 -21.9
-118.612773 33.478767 -93.3
-118.575804 33.443307 -29.3
-118.609834 33.456037 -100.6
-118.461869 33.459893 -252.4
-118.587072 33.47667 -29.3
-118.469828 33.466873 -265.2
-118.532472 33.409935 -150.0
-118.547446 33.404805 -369.4
-118.542347 33.411063 -245.1
-118.605311 33.461779 -84.1
-118.599947 33.445623 -115.2
-118.610878 33.466612 -73.2
-118.622048 33.468694 -91.4
-118.62542 33.476869 -129.8
-118.541725 33.430202 -65.8
-118.554793 33.418471 -124.4
-118.562993 33.40606 -424.3
-118.556179 33.409091 -349.3
-118.570698 33.415152 -378.6
-118.528539 33.418102 -91.4
-118.486526 33.387317 -36.6
-118.499227 33.391542 -89.6
-118.501029 33.488332 -254.2
-118.556754 33.418524 -133.5
-118.552076 33.42246 -96.9
-118.56439 33.428855 -87.8
-118.532414 33.427899 -69.5
-118.530736 33.429549 -27.4
-118.529295 33.494297 -252.4
-118.558959 33.431971 -23.8
-118.561212 33.433327 -29.3
-118.630406 33.492575 -235.9
-118.492898 33.479432 -239.6
-118.505535 33.385739 -223.1
-118.603888 33.469079 -20.1
-118.501257 33.397656 -87.8
-118.511499 33.399689 -111.6
-118.457603 33.435955 -7.6
-118.569829 33.43026 -87.8
-118.588735 33.456165 -17.8
-118.608678 33.469662 -38.4
-118.529964 33.399792 -223.1
-118.606978 33.472353 -27.4
-118.610559 33.472467 -47.5
-118.581813 33.434202 -93.3
-118.572246 33.435091 -75.0
-118.579459 33.502214 -256.0
-118.604941 33.473311 -20.1
-118.546493 33.389697 -453.5
-118.550118 33.393522 -389.5
-118.511369 33.402592 -104.2
-118.588416 33.460093 -6.1
-118.454675 33.434083 -3.7
-118.600185 33.432512 -250.5
-118.565951 33.434246 -25.6
-118.564909 33.434499 -21.9
-118.566393 33.434921 -21.9
-118.570257 33.434069 -64.0
-118.594191 33.463454 -13.7
-118.610656 33.476083 -65.8
-118.581908 33.445854 -60.4
-118.598099 33.467073 -13.7
-118.600499 33.468645 -14.6
-118.597824 33.465479 -15.5
-118.598122 33.466662 -15.1
-118.602963 33.459426 -78.6
-118.453997 33.456459 -256.0
-118.580902 33.44992 -10.7
-118.595322 33.438659 -126.2
-118.53852 33.408619 -239.6
-118.597713 33.445248 -106.1
-118.603135 33.465337 -29.3
-118.606345 33.466454 -49.4
-118.6311 33.46845 -98.8
-118.630303 33.482386 -184.7
-118.537058 33.432888 -15.5
-118.541189 33.433016 -38.4
-118.572876 33.493919 -232.3
-118.620575 33.482539 -157.3
-118.499238 33.392981 -87.8
-118.554565 33.429552 -82.3
-118.554701 33.430899 -64.0
-118.530517 33.426841 -76.8
-118.538197 33.420977 -93.3
-118.531386 33.496186 -257.9
-118.555101 33.432271 -20.1
-118.564832 33.432827 -58.5
-118.555848 33.432944 -12.2
-118.63315 33.488822 -224.9
-118.575997 33.420544 -325.5
-118.583605 33.424094 -268.8
-118.538411 33.426605 -82.3
-118.538828 33.427308 -82.3
-118.500957 33.390528 -93.3
-118.603283 33.467451 -23.8
-118.503138 33.397872 -89.6
-118.505469 33.398409 -93.3
-118.503144 33.399275 -89.6
-118.519636 33.397397 -164.6
-118.586885 33.452532 -27.4
-118.587741 33.45344 -31.1
-118.604391 33.470262 -18.7
-118.581916 33.437001 -91.4
-118.57289 33.437438 -58.5
-118.573571 33.438887 -34.7
-118.547358 33.500894 -274.3
-118.543553 33.397197 -320.0
-118.558312 33.390609 -490.1
-118.617261 33.478078 -100.6
-118.579933 33.443757 -71.3
-118.583363 33.445129 -76.8
-118.575676 33.447418 -16.9
-118.5324 33.407758 -162.8
-118.466528 33.464701 -263.3
-118.583769 33.449712 -29.3
-118.588005 33.433455 -118.9
-118.59473 33.440137 -117.0
-118.532483 33.411824 -140.8
-118.542058 33.413208 -201.2
-118.548818 33.41661 -159.1
-118.434385 33.427194 -1.5
-118.614942 33.462532 -93.3
-118.561146 33.414944 -283.5
-118.577149 33.40861 -486.5
-118.531789 33.423169 -84.1
-118.550984 33.427074 -84.1
-118.486318 33.393259 -27.4
-118.532042 33.424994 -84.1
-118.528372 33.426794 -73.2
-118.497024 33.398956 -76.8
-118.566687 33.432041 -73.2
-118.564107 33.433183 -43.9
-118.57478 33.418985 -354.8
-118.574221 33.42053 -287.1
-118.62547 33.485544 -203.0
-118.538536 33.424685 -86.0
-118.537264 33.426633 -82.3
-118.601691 33.468037 -19.7
-118.603366 33.468243 -19.2
-118.512732 33.395534 -157.3
-118.515666 33.397389 -153.6
-118.526081 33.390745 -323.7
-118.60972 33.470107 -43.9
-118.539217 33.384222 -455.4
-118.460503 33.437438 -2.7
-118.568323 33.43618 -21.9
-118.566507 33.501956 -259.7
-118.587469 33.500086 -246.9
-118.554204 33.397484 -413.3
-118.589752 33.457445 -18.3
-118.588513 33.458759 -10.4
-118.541275 33.43421 -11.3
-118.565782 33.436374 -16.9
-118.567146 33.437052 -18.3
-118.610703 33.475625 -75.0
-118.57399 33.444107 -17.8
-118.577316 33.447784 -17.8
-118.609492 33.503069 -254.2
-118.620092 33.502089 -256.0
-118.596935 33.465476 -13.3
-118.614395 33.450104 -159.1
-118.58053 33.449518 -10.1
-118.528025 33.412038 -113.4
-118.534195 33.415366 -115.2
-118.602138 33.461115 -73.2
-118.616292 33.462545 -93.3
-118.6217 33.467557 -86.0
-118.629473 33.478553 -144.5
-118.543495 33.432796 -23.8
-118.54472 33.433166 -17.8
-118.531953 33.421541 -87.8
-118.529392 33.422124 -86.0
-118.447369 33.430716 -3.7
-118.499216 33.388639 -106.1
-118.497346 33.395228 -82.3
-118.568801 33.417221 -323.7
-118.570512 33.420563 -188.4
-118.574071 33.422391 -226.8
-118.585813 33.447312 -78.6
-118.601819 33.434132 -215.8
-118.601058 33.448884 -106.1
-118.582541 33.451201 -14.6
-118.543917 33.422235 -93.3
-118.536828 33.423577 -87.8
-118.545303 33.42723 -80.5
-118.534597 33.428516 -29.3
-118.61542 33.496481 -241.4
-118.616109 33.498628 -245.1
-118.45578 33.434738 -2.1
-118.456867 33.435671 -5.5
-118.570432 33.427505 -91.4
-118.577402 33.429374 -93.3
-118.589522 33.450387 -80.5
-118.586033 33.455507 -8.2
-118.604033 33.469845 -17.8
-118.60667 33.47039 -27.4
-118.523591 33.501556 -301.8
-118.610067 33.501672 -252.4
-118.604169 33.474703 -16.9
-118.512124 33.401892 -106.1
-118.591841 33.460857 -16.9
-118.585324 33.432758 -102.4
-118.551773 33.434774 -10.4
-118.591847 33.461226 -16.9
-118.606539 33.475653 -23.8
-118.612903 33.476711 -87.8
-118.616023 33.477928 -98.8
-118.610061 33.478419 -73.2
-118.575334 33.445243 -20.1
-118.596355 33.466737 -9.1
-118.60641 33.502956 -252.4
-118.530261 33.407833 -142.6
-118.589419 33.476184 -8.8
-118.588922 33.476544 -16.5
-118.593933 33.437637 -124.4
-118.592588 33.443026 -95.1
-118.528139 33.408952 -126.2
-118.547479 33.409249 -318.2
-118.595955 33.446373 -95.1
-118.444264 33.428852 0.0
-118.603744 33.463468 -69.5
-118.623903 33.472886 -100.6
-118.549115 33.431785 -73.2
-118.544945 33.432721 -18.7
-118.54415 33.432791 -20.1
-118.581819 33.413105 -481.0
-118.528595 33.41933 -89.6
-118.619842 33.466115 -76.8
-118.486454 33.388495 -34.7
-118.496957 33.389061 -84.1
-118.493141 33.389317 -67.7
-118.638043 33.482053 -184.7
-118.448417 33.43183 -3.7
-118.554462 33.42383 -91.4
-118.558284 33.431188 -51.2
-118.556751 33.431221 -58.5
-118.489001 33.395992 -45.7
-118.531683 33.429508 -21.9
-118.597916 33.497158 -204.8
-118.497302 33.396547 -80.5
-118.492966 33.402703 -58.5
-118.560418 33.431958 -23.8
-118.627117 33.488869 -219.5
-118.623686 33.493028 -234.1
-118.495954 33.481462 -239.6
-118.590144 33.448687 -87.8
-118.611211 33.447051 -164.6
-118.611981 33.447882 -162.8
-118.531186 33.468884 -2.1
-118.583227 33.45242 -12.8
-118.612198 33.467732 -73.2
-118.613403 33.468845 -84.1
-118.515344 33.395664 -181.1
-118.53185 33.471143 0.0
-118.523208 33.398814 -181.1
-118.610189 33.471414 -47.5
-118.617567 33.471425 -89.6
-118.606359 33.472297 -25.6
-118.608028 33.472439 -29.3
-118.46168 33.438744 -8.2
-118.462192 33.438783 -3.0
-118.579622 33.434663 -91.4
-118.580991 33.440398 -86.0
-118.582572 33.440859 -86.0
-118.563137 33.502044 -265.2
-118.582847 33.502339 -256.0
-118.586524 33.501161 -246.9
-118.584835 33.502028 -254.2
-118.605172 33.472936 -17.8
-118.605719 33.474611 -20.1
-118.610473 33.474631 -53.0
-118.616884 33.474797 -95.1
-118.503144 33.400561 -89.6
-118.550398 33.434858 -9.1
-118.580888 33.445748 -53.0
-118.58073 33.448029 -16.9
-118.575829 33.448376 -13.3
-118.526256 33.408238 -120.7
-118.58763 33.47522 -7.6
-118.59173 33.444573 -93.3
-118.530581 33.412244 -120.7
-118.534775 33.402453 -234.1
-118.538767 33.411435 -201.2
-118.614978 33.460862 -93.3
-118.586849 33.44552 -87.8
-118.585374 33.446818 -78.6
-118.587869 33.477611 -49.4
-118.615311 33.463648 -87.8
-118.623092 33.469867 -93.3
-118.630075 33.474225 -128.0
-118.563996 33.414927 -316.4
-118.527592 33.421891 -86.0
-118.619303 33.465693 -80.5
-118.490696 33.387464 -56.7
-118.499199 33.390139 -89.6
-118.637326 33.483142 -193.9
-118.496991 33.392911 -82.3
-118.556065 33.429763 -82.3
-118.561907 33.430708 -64.0
-118.49521 33.394009 -76.8
-118.489306 33.396497 -49.4
-118.533808 33.426624 -80.5
-118.548884 33.418491 -117.0
-118.49481 33.397767 -71.3
-118.492716 33.398484 -64.0
-118.498913 33.400267 -82.3
-118.59628 33.449007 -93.3
-118.603773 33.436329 -188.4
-118.605023 33.445326 -142.6
-118.537181 33.424699 -86.0
-118.541411 33.426408 -82.3
-118.538895 33.428149 -75.0
-118.615764 33.466745 -84.1
-118.530414 33.386867 -464.5
-118.564571 33.493858 -245.1
-118.568568 33.42756 -89.6
-118.569601 33.43093 -87.8
-118.59206 33.456604 -43.9
-118.460964 33.437621 -4.3
-118.46048 33.437785 -6.7
-118.575748 33.43506 -87.8
-118.575462 33.43591 -86.0
-118.569073 33.43621 -25.6
-118.577716 33.441165 -69.5
-118.523607 33.501083 -299.9
-118.526227 33.501975 -305.4
-118.556315 33.392853 -427.9
-118.55474 33.398128 -415.1
-118.453308 33.433477 -3.7
-118.565529 33.434463 -23.8
-118.565693 33.435516 -18.7
-118.566901 33.437283 -14.6
-118.574271 33.445804 -16.5
-118.575757 33.44587 -20.1
-118.583327 33.446051 -71.3
-118.581694 33.446382 -54.9
-118.60965 33.458345 -95.1
-118.589716 33.476622 -12.5
-118.588377 33.436645 -100.6
-118.587294 33.440004 -93.3
-118.536364 33.412794 -160.9
-118.547548 33.41568 -175.6
-118.556284 33.400874 -455.4
-118.615084 33.461568 -89.6
-118.58901 33.477558 -32.9
-118.612103 33.463334 -87.8
-118.621767 33.457398 -107.9
-118.632462 33.477247 -148.1
-118.5398 33.43303 -38.4
-118.564682 33.408941 -404.2
-118.570557 33.414346 -382.2
-118.531995 33.41811 -95.1
-118.530247 33.421519 -86.0
-118.627367 33.464318 -96.9
-118.619067 33.465137 -84.1
-118.49308 33.384842 -65.8
-118.446053 33.429483 -1.8
-118.490521 33.388586 -56.7
-118.487762 33.391297 -42.1
-118.492932 33.391559 -67.7
-118.492946 33.39275 -67.7
-118.509705 33.493123 -261.5
-118.552921 33.423735 -93.3
-118.562804 33.427202 -87.8
-118.492788 33.393906 -67.7
-118.486054 33.397881 -23.8
-118.491635 33.400059 -54.9
-118.496791 33.400147 -76.8
-118.491579 33.401911 -51.2
-118.521452 33.495522 -263.3
-118.521224 33.499667 -290.8
-118.55404 33.43221 -49.4
-118.576974 33.417702 -393.2
-118.578549 33.419038 -382.2
-118.623261 33.487378 -210.3
-118.583705 33.452307 -15.1
-118.546556 33.42373 -89.6
-118.627609 33.483367 -197.5
-118.514316 33.394014 -188.4
-118.606164 33.466965 -32.9
-118.605661 33.469095 -27.4
-118.517872 33.387372 -248.7
-118.578838 33.428805 -96.9
-118.575115 33.432919 -89.6
-118.587522 33.454248 -19.7
-118.594555 33.455862 -75.0
-118.610431 33.470931 -54.9
-118.611928 33.470956 -76.8
-118.605305 33.472625 -21.9
-118.579394 33.441398 -76.8
-118.596572 33.501675 -246.9
-118.539978 33.433755 -19.2
-118.54989 33.433894 -23.8
-118.565971 33.433741 -34.7
-118.590074 33.461115 -9.8
-118.579777 33.447745 -21.9
-118.602866 33.503033 -254.2
-118.598652 33.464676 -21.9
-118.59773 33.466245 -14.2
-118.596602 33.466279 -9.8
-118.605042 33.455923 -93.3
-118.614561 33.456804 -109.7
-118.601216 33.457262 -82.3
-118.597058 33.438562 -150.0
-118.532695 33.41393 -111.6
-118.542089 33.414896 -171.9
-118.548887 33.415049 -199.3
-118.560246 33.401041 -435.3
-118.601905 33.459726 -75.0
-118.617567 33.463007 -91.4
-118.603491 33.464282 -49.4
-118.619942 33.473992 -96.9
-118.619292 33.476975 -102.4
-118.628798 33.478156 -140.8
-118.630611 33.479931 -166.4
-118.541961 33.432916 -29.3
-118.555809 33.40616 -378.6
-118.565054 33.409491 -407.8
-118.619556 33.462043 -95.1
-118.618223 33.462884 -93.3
-118.626481 33.463173 -96.9
-118.444658 33.429035 0.0
-118.496952 33.390464 -82.3
-118.487704 33.393695 -31.1
-118.490701 33.39397 -58.5
-118.529103 33.424555 -80.5
-118.532047 33.428408 -56.7
-118.491584 33.400892 -53.0
-118.562862 33.432002 -58.5
-118.570673 33.416963 -340.2
-118.625445 33.49125 -224.9
-118.571373 33.42231 -137.2
-118.526322 33.382075 -274.3
-118.54092 33.425641 -86.0
-118.541592 33.428135 -75.0
-118.507474 33.392786 -104.2
-118.604155 33.467659 -23.8
-118.605091 33.468512 -25.6
-118.53902 33.4977 -257.9
-118.580327 33.427102 -122.5
-118.573954 33.42846 -91.4
-118.58628 33.430394 -171.9
-118.585969 33.431194 -122.5
-118.586602 33.454359 -13.7
-118.587222 33.455112 -12.8
-118.574546 33.439529 -36.6
-118.534525 33.393872 -305.4
-118.556362 33.386697 -620.0
-118.560743 33.390778 -504.7
-118.596222 33.45967 -51.2
-118.590813 33.460551 -15.5
-118.455128 33.434224 -3.0
-118.541647 33.433613 -21.9
-118.540875 33.43366 -21.9
-118.550798 33.435013 -8.5
-118.596522 33.463395 -19.7
-118.60612 33.475106 -21.9
-118.526078 33.40497 -135.3
-118.528203 33.407527 -135.3
-118.606317 33.45729 -91.4
-118.467447 33.463809 -254.2
-118.586169 33.438862 -93.3
-118.527795 33.415896 -95.1
-118.544472 33.416477 -162.8
-118.602947 33.462337 -75.0
-118.616275 33.462948 -91.4
-118.60802 33.466512 -58.5
-118.622567 33.474269 -102.4
-118.633004 33.479878 -170.1
-118.632606 33.482058 -184.7
-118.499413 33.381642 -80.5
-118.568007 33.404355 -460.9
-118.574394 33.409363 -471.8
-118.446819 33.429899 -2.4
-118.558629 33.420674 -115.2
-118.556504 33.428941 -84.1
-118.488629 33.39805 -31.1
-118.551534 33.431783 -73.2
-118.557032 33.432646 -15.1
-118.624567 33.491081 -228.6
-118.528675 33.381761 -268.8
-118.602049 33.447795 -113.4
-118.583122 33.451798 -14.6
-118.549721 33.42561 -87.8
-118.535331 33.428696 -29.3
-118.63167 33.484147 -197.5
-118.618811 33.485028 -179.2
-118.517539 33.394272 -212.1
-118.509388 33.399056 -104.2
-118.59743 33.450323 -91.4
-118.586085 33.454473 -14.2
-118.549048 33.383989 -493.8
-118.570976 33.437463 -27.4
-118.578885 33.438257 -86.0
-118.578538 33.440312 -76.8
-118.583877 33.500094 -248.7
-118.593166 33.50145 -246.9
-118.547059 33.39655 -340.2
-118.562701 33.392747 -493.8
-118.501235 33.400617 -86.0
-118.596258 33.458282 -60.4
-118.588283 33.458312 -11.6
-118.589963 33.458643 -13.3
-118.549079 33.433849 -20.1
-118.54022 33.434424 -7.9
-118.539045 33.434452 -6.7
-118.550946 33.433969 -34.7
-118.566515 33.436402 -16.5
-118.611414 33.476942 -80.5
-118.599755 33.467051 -17.8
-118.523883 33.404956 -128.0
-118.601802 33.455259 -89.6
-118.538681 33.405624 -256.0
-118.535697 33.408844 -199.3
-118.547437 33.412138 -267.0
-118.546995 33.415074 -195.7
-118.614142 33.464462 -76.8
-118.618145 33.467459 -87.8
-118.630164 33.467583 -96.9
-118.624798 33.468414 -93.3
-118.622634 33.470436 -95.1
-118.495157 33.383975 -73.2
-118.560815 33.404033 -420.6
-118.552412 33.41506 -215.8
-118.619623 33.46649 -78.6
-118.579018 33.4977 -243.2
-118.49686 33.387639 -84.1
-118.55854 33.418516 -150.0
-118.556248 33.423902 -91.4
-118.536275 33.419313 -100.6
-118.548709 33.420613 -102.4
-118.540233 33.420905 -95.1
-118.499035 33.398836 -84.1
-118.49002 33.3994 -38.4
-118.498935 33.401695 -82.3
-118.56164 33.432052 -27.4
-118.556637 33.432752 -13.3
-118.566271 33.432838 -58.5
-118.576169 33.422488 -279.8
-118.527753 33.466543 -0.9
-118.545453 33.422185 -93.3
-118.541603 33.427227 -78.6
-118.509338 33.394247 -113.4
-118.603274 33.466732 -23.8
-118.509327 33.395497 -109.7
-118.501235 33.399211 -87.8
-118.5342 33.3835 -384.0
-118.531011 33.469295 -2.4
-118.556057 33.497425 -257.9
-118.570829 33.425719 -93.3
-118.572243 33.427352 -91.4
-118.592274 33.42468 -391.4
-118.594688 33.450645 -89.6
-118.600308 33.451004 -95.1
-118.585508 33.45219 -25.6
-118.586777 33.455584 -12.5
-118.540345 33.383667 -409.7
-118.576122 33.434105 -89.6
-118.574468 33.437615 -78.6
-118.618464 33.496456 -241.4
-118.533195 33.502478 -298.1
-118.581082 33.501244 -254.2
-118.610023 33.473772 -54.9
-118.607139 33.473775 -25.6
-118.554246 33.395114 -391.4
-118.590985 33.457729 -21.9
-118.59468 33.459387 -29.3
-118.593919 33.460412 -21.9
-118.462564 33.439827 -3.7
-118.615284 33.477164 -95.1
-118.609839 33.477875 -67.7
-118.583363 33.444654 -76.8
-118.597974 33.467465 -11.9
-118.523833 33.403442 -137.2
-118.521958 33.404836 -122.5
-118.595658 33.465415 -9.1
-118.464053 33.467379 -298.1
-118.596674 33.44214 -117.0
-118.596099 33.443354 -107.9
-118.621986 33.466904 -89.6
-118.534642 33.400217 -248.7
-118.542017 33.416483 -151.8
-118.611645 33.460737 -91.4
-118.617131 33.461287 -95.1
-118.620823 33.467618 -82.3
-118.620142 33.471903 -93.3
-118.49513 33.382797 -71.3
-118.532386 33.471432 0.6
-118.562971 33.406891 -418.8
-118.568851 33.412569 -402.3
-118.568929 33.413644 -378.6
-118.617709 33.459648 -98.8
-118.624017 33.464759 -95.1
-118.620136 33.465784 -80.5
-118.636671 33.482333 -192.0
-118.448575 33.43211 -3.7
-118.566684 33.420474 -224.9
-118.553137 33.428999 -82.3
-118.559157 33.430985 -67.7
-118.536522 33.475623 -11.0
-118.529045 33.423366 -82.3
-118.5401 33.41746 -118.9
-118.554248 33.432899 -21.9
-118.621406 33.490775 -226.8
-118.58033 33.420769 -373.1
-118.511546 33.385909 -265.2
-118.596963 33.447557 -95.1
-118.6066 33.442354 -170.1
-118.607475 33.443432 -168.2
-118.542072 33.422708 -91.4
-118.537289 33.425533 -84.1
-118.503402 33.390892 -95.1
-118.517399 33.395895 -184.7
-118.5302 33.384672 -349.3
-118.526081 33.387836 -448.1
-118.552808 33.497372 -257.9
-118.562993 33.499692 -256.0
-118.571737 33.432883 -78.6
-118.588497 33.451504 -69.5
-118.5435 33.386922 -581.6
-118.607956 33.471406 -29.3
-118.577108 33.435244 -87.8
-118.570018 33.435549 -31.1
-118.576335 33.436952 -84.1
-118.572473 33.438245 -31.1
-118.576702 33.440107 -53.0
-118.621786 33.49615 -239.6
-118.63491 33.486653 -215.8
-118.553167 33.500506 -270.7
-118.56174 33.50065 -265.2
-118.613595 33.501303 -252.4
-118.548451 33.391884 -409.7
-118.552729 33.383531 -508.4
-118.588797 33.460048 -9.1
-118.591499 33.460637 -16.0
-118.427124 33.450235 -263.3
-118.5379 33.433871 -15.5
-118.546483 33.434333 -7.3
-118.566862 33.436816 -14.2
-118.574771 33.433983 -87.8
-118.613536 33.47505 -87.8
-118.613606 33.477503 -91.4
-118.580072 33.445262 -58.5
-118.594922 33.465301 -5.2
-118.603849 33.454684 -91.4
-118.615581 33.457107 -109.7
-118.611906 33.458004 -95.1
-118.587158 33.435929 -98.8
-118.59821 33.438107 -155.4
-118.591358 33.441484 -95.1
-118.552757 33.401266 -433.4
-118.616836 33.463729 -78.6
-118.618523 33.453968 -126.2
-118.625998 33.469708 -95.1
-118.62395 33.475475 -111.6
-118.538053 33.430616 -31.1
-118.539803 33.430683 -56.7
-118.562293 33.409221 -393.2
-118.530197 33.423316 -82.3
-118.620436 33.464048 -93.3
-118.619167 33.466079 -78.6
-118.508988 33.490201 -241.4
-118.515721 33.496112 -281.6
-118.448186 33.431238 -2.7
-118.488887 33.394897 -43.9
-118.546497 33.416833 -150.0
-118.550876 33.418466 -115.2
-118.517888 33.497908 -292.6
-118.621167 33.485961 -199.3
-118.618098 33.488072 -203.0
-118.631381 33.491344 -232.3
-118.597249 33.465923 -13.3
-118.60208 33.458334 -80.5
-118.587219 33.475548 -7.6
-118.588135 33.476137 -12.5
-118.59108 33.438193 -107.9
-118.525072 33.411219 -107.9
-118.5435 33.41551 -175.6
-118.616806 33.460134 -96.9
-118.602463 33.46329 -54.9
-118.61237 33.46399 -86.0
-118.605398 33.465445 -60.4
-118.614303 33.465951 -76.8
-118.619336 33.468525 -89.6
-118.623667 33.46905 -93.3
-118.625536 33.474606 -117.0
-118.620567 33.478306 -113.4
-118.621209 33.480747 -133.5
-118.632398 33.481572 -182.9
-118.492946 33.382592 -64.0
-118.49096 33.383997 -56.7
-118.550954 33.412158 -276.1
-118.571354 33.409838 -427.9
-118.534178 33.418238 -98.8
-118.533195 33.423224 -86.0
-118.62002 33.46357 -93.3
-118.489012 33.389253 -51.2
-118.495452 33.3917 -78.6
-118.554846 33.422433 -98.8
-118.486251 33.395175 -25.6
-118.529331 33.430038 -17.8
-118.547072 33.419458 -104.2
-118.588441 33.497314 -226.8
-118.52176 33.498736 -281.6
-118.557032 33.431969 -29.3
-118.623648 33.488786 -219.5
-118.581966 33.422516 -345.6
-118.498726 33.486087 -250.5
-118.524064 33.383053 -331.0
-118.536195 33.423291 -89.6
-118.53475 33.424841 -84.1
-118.531595 33.3834 -318.2
-118.456428 33.43523 -3.7
-118.594691 33.427269 -265.2
-118.588044 33.432077 -140.8
-118.526164 33.393106 -261.5
-118.521889 33.396772 -186.5
-118.593302 33.452254 -84.1
-118.592524 33.453709 -73.2
-118.598108 33.453845 -87.8
-118.593497 33.454868 -73.2
-118.591002 33.456651 -29.3
-118.605811 33.47017 -25.6
-118.612617 33.472128 -84.1
-118.636579 33.484353 -201.2
-118.580368 33.500061 -256.0
-118.576423 33.502183 -257.9
-118.609267 33.4729 -36.6
-118.5344 33.396947 -268.8
-118.509388 33.400714 -100.6
-118.589844 33.460351 -11.9
-118.430607 33.450624 -259.7
-118.549993 33.434655 -11.3
-118.596219 33.462668 -20.1
-118.611153 33.477714 -82.3
-118.576958 33.445957 -23.8
-118.576273 33.446412 -20.1
-118.513702 33.384353 -272.5
-118.501121 33.39362 -89.6
-118.580391 33.425641 -137.2
-118.571254 33.429205 -89.6
-118.568171 33.432027 -80.5
-118.592241 33.451115 -86.0
-118.586422 33.45497 -12.8
-118.462186 33.439694 -6.1
-118.569129 33.436905 -21.9
-118.569409 33.43763 -16.9
-118.589847 33.501225 -246.9
-118.607189 33.474658 -25.6
-118.553979 33.384847 -513.9
-118.591947 33.45739 -25.6
-118.588724 33.459634 -7.6
-118.571693 33.434038 -73.2
-118.59788 33.461348 -54.9
-118.6156 33.475936 -93.3
-118.607009 33.477983 -18.7
-118.614134 33.478381 -93.3
-118.596335 33.464526 -13.3
-118.601547 33.452273 -93.3
-118.612603 33.457723 -100.6
-118.457389 33.462604 -290.8
-118.590658 33.435804 -117.0
-118.594599 33.441679 -106.1
-118.530361 33.415277 -106.1
-118.542847 33.400139 -310.9
-118.55084 33.401146 -404.2
-118.559429 33.400588 -455.4
-118.48184 33.476959 -265.2
-118.603988 33.466195 -27.4
-118.625342 33.473514 -109.7
-118.62435 33.481722 -171.9
-118.490866 33.382884 -54.9
-118.547545 33.43313 -27.4
-118.569559 33.402088 -491.9
-118.634662 33.481253 -181.1
-118.490702 33.39287 -58.5
-118.4482 33.432074 -5.8
-118.560821 33.42066 -120.7
-118.566265 33.430202 -84.1
-118.559876 33.431205 -47.5
-118.488284 33.395122 -31.1
-118.495019 33.396525 -73.2
-118.532617 33.427138 -76.8
-118.449475 33.432941 -4.9
-118.562073 33.432644 -25.6
-118.563426 33.43273 -34.7
-118.553646 33.43301 -38.4
-118.492881 33.483445 -259.7
-118.549757 33.423796 -91.4
-118.539561 33.424771 -86.0
-118.540103 33.427083 -82.3
-118.536842 33.428424 -56.7
-118.509163 33.390731 -115.2
-118.60386 33.467354 -23.8
-118.513955 33.395514 -171.9
-118.566062 33.497119 -252.4
-118.586805 33.426885 -188.4
-118.589658 33.429488 -235.9
-118.586216 33.452937 -20.1
-118.58536 33.453845 -14.6
-118.590383 33.456054 -38.4
-118.597699 33.456729 -78.6
-118.609475 33.472611 -34.7
-118.569029 33.434266 -23.8
-118.570051 33.438355 -9.1
-118.535711 33.500692 -281.6
-118.570176 33.500117 -256.0
-118.586185 33.502486 -254.2
-118.611045 33.474592 -76.8
-118.547679 33.388425 -554.1
-118.539881 33.388636 -537.7
-118.547536 33.433974 -13.7
-118.562915 33.433788 -21.9
-118.567337 33.43488 -23.8
-118.59408 33.461976 -19.7
-118.59363 33.462945 -12.8
-118.60578 33.476394 -18.7
-118.61207 33.47785 -87.8
-118.578394 33.444309 -58.5
-118.576935 33.444484 -32.9
-118.534108 33.407008 -193.9
-118.595974 33.464026 -13.7
-118.594613 33.464723 -6.4
-118.596649 33.46497 -13.3
-118.60286 33.450637 -102.4
-118.591352 33.434315 -126.2
-118.604699 33.465107 -51.2
-118.624336 33.472444 -107.9
-118.617784 33.477178 -98.8
-118.618686 33.478175 -104.2
-118.621881 33.479425 -131.7
-118.49698 33.381075 -75.0
-118.539058 33.430652 -47.5
-118.551109 33.416988 -150.0
-118.532233 33.471323 0.0
-118.567154 33.411505 -391.4
-118.534206 33.416763 -107.9
-118.489018 33.388289 -51.2
-118.52952 33.427824 -71.3
-118.538114 33.417516 -113.4
-118.542131 33.417694 -122.5
-118.544433 33.417883 -118.9
-118.545664 33.418766 -111.6
-118.488609 33.402211 -23.8
-118.577572 33.421827 -318.2
-118.55244 33.406274 -367.6
-118.557546 33.411963 -316.4
-118.559854 33.413777 -290.8
-118.573432 33.412571 -417.0
-118.527817 33.417216 -91.4
-118.621064 33.465857 -82.3
-118.569407 33.497156 -250.5
-118.572554 33.497244 -246.9
-118.486334 33.389725 -32.9
-118.488956 33.392867 -49.4
-118.638657 33.481161 -184.7
-118.557682 33.429694 -82.3
-118.534558 33.474315 -1.8
-118.527436 33.426221 -71.3
-118.530597 33.428669 -69.5
-118.594702 33.49725 -212.1
-118.44818 33.432321 -11.6
-118.497085 33.397639 -78.6
-118.49301 33.401611 -60.4
-118.557459 33.432366 -12.5
-118.617834 33.494569 -237.7
-118.573179 33.423944 -157.3
-118.569754 33.424021 -96.9
-118.589072 33.447568 -86.0
-118.526911 33.466337 0.0
-118.54122 33.497208 -261.5
-118.548967 33.497281 -259.7
-118.534961 33.497364 -259.7
-118.542347 33.429066 -71.3
-118.513635 33.390153 -168.2
-118.50328 33.39385 -93.3
-118.513757 33.399584 -120.7
-118.455447 33.434808 -4.9
-118.525814 33.398097 -204.8
-118.584622 33.453898 -11.9
-118.588235 33.454926 -20.1
-118.613831 33.472589 -86.0
-118.607595 33.472736 -27.4
-118.567868 33.434294 -27.4
-118.619456 33.498469 -245.1
-118.533583 33.500217 -278.0
-118.541692 33.500878 -278.0
-118.604702 33.474914 -17.8
-118.534842 33.390564 -389.5
-118.568707 33.399527 -484.6
-118.592602 33.460365 -20.1
-118.537083 33.433666 -11.0
-118.552109 33.433894 -40.2
-118.609531 33.477642 -65.8
-118.575098 33.443673 -23.8
-118.582702 33.447882 -43.9
-118.600905 33.468857 -11.3
-118.519636 33.401897 -139.0
-118.594455 33.464054 -12.5
-118.595855 33.466562 -7.3
-118.610459 33.451851 -126.2
-118.58458 33.434127 -95.1
-118.594966 33.445268 -95.1
-118.483848 33.478459 -267.0
-118.623573 33.471536 -117.0
-118.629489 33.47765 -140.8
-118.544242 33.430013 -75.0
-118.543111 33.432299 -29.3
-118.537206 33.432366 -21.9
-118.537636 33.432838 -23.8
-118.50333 33.386047 -197.5
-118.545464 33.496356 -256.0
-118.535172 33.427116 -78.6
-118.583985 33.453157 -13.3
-118.501416 33.394931 -89.6
-118.567321 33.493975 -245.1
-118.580688 33.432996 -93.3
-118.582616 33.433335 -95.1
-118.590105 33.42228 -418.8
-118.587069 33.427444 -199.3
-118.5303 33.390097 -385.9
-118.59916 33.454929 -87.8
-118.588847 33.455643 -20.1
-118.592883 33.455762 -65.8
-118.59811 33.456084 -82.3
-118.536995 33.386928 -502.9
-118.567623 33.43701 -18.3
-118.575209 33.438493 -73.2
-118.578958 33.439618 -82.3
-118.582049 33.441448 -84.1
-118.573346 33.500239 -256.0
-118.596124 33.502933 -250.5
-118.600185 33.458951 -71.3
-118.592058 33.459793 -19.2
-118.594372 33.432984 -160.9
-118.552218 33.434491 -17.4
-118.551412 33.435041 -8.8
-118.566762 33.435635 -20.1
-118.597424 33.461973 -40.2
-118.605208 33.475886 -19.7
-118.577969 33.443157 -58.5
-118.577891 33.447568 -16.5
-118.581224 33.448382 -23.8
-118.597397 33.46717 -12.2
-118.600213 33.467509 -18.7
-118.600427 33.467968 -18.3
-118.527939 33.405888 -140.8
-118.610231 33.453582 -118.9
-118.616478 33.458198 -102.4
-118.6133 33.458912 -93.3
-118.590791 33.443568 -93.3
-118.60572 33.463734 -76.8
-118.62532 33.468819 -95.1
-118.628842 33.476008 -131.7
-118.622009 33.476519 -106.1
-118.543353 33.433194 -21.9
-118.564512 33.41673 -276.1
-118.553007 33.418452 -118.9
-118.57498 33.414908 -418.8
-118.528539 33.420591 -86.0
-118.6222 33.464029 -87.8
-118.530664 33.428296 -75.0
-118.547621 33.418408 -117.0
-118.542289 33.421752 -95.1
-118.448964 33.432421 -6.4
-118.490118 33.396672 -53.0
-118.486251 33.398822 -21.9
-118.554346 33.433271 -12.2
-118.562309 33.433349 -20.1
-118.57681 33.417341 -404.2
-118.569832 33.418858 -283.5
-118.489906 33.48172 -265.2
-118.509607 33.384272 -239.6
-118.535975 33.424699 -86.0
-118.549118 33.427033 -84.1
-118.546775 33.428069 -80.5
-118.535786 33.42831 -36.6
-118.613431 33.496339 -237.7
-118.511499 33.392056 -137.2
-118.607545 33.46764 -40.2
-118.505194 33.396772 -95.1
-118.595769 33.451618 -89.6
-118.586863 33.453565 -20.1
-118.591833 33.45469 -64.0
-118.548923 33.384628 -521.2
-118.46133 33.438335 -8.5
-118.530257 33.502075 -303.6
-118.546122 33.501928 -276.1
-118.569643 33.502044 -259.7
-118.598208 33.501853 -241.4
-118.589591 33.502531 -241.4
-118.605202 33.474056 -19.7
-118.562815 33.399135 -475.5
-118.501263 33.401886 -86.0
-118.594699 33.457795 -62.2
-118.599577 33.462959 -36.6
-118.578908 33.44552 -53.0
-118.57998 33.446837 -42.1
-118.578472 33.447745 -7.9
-118.579191 33.448532 -11.3
-118.452947 33.466173 -345.6
-118.587872 33.437793 -95.1
-118.592827 33.445701 -93.3
-118.586947 33.477639 -58.5
-118.548472 33.430833 -76.8
-118.546722 33.431396 -64.0
-118.542781 33.431649 -56.7
-118.537025 33.433291 -12.2
-118.558079 33.416902 -173.7
-118.583672 33.415563 -475.5
-118.534131 33.419791 -93.3
-118.622275 33.462826 -95.1
-118.489029 33.386342 -49.4
-118.495344 33.386414 -76.8
-118.558654 33.425388 -89.6
-118.487709 33.394934 -31.1
-118.536381 33.420621 -93.3
-118.490104 33.477615 -239.6
-118.545279 33.379775 -382.2
-118.550982 33.381703 -448.1
-118.599294 33.449904 -95.1
-118.601313 33.446737 -118.9
-118.549007 33.422238 -95.1
-118.54442 33.423044 -89.6
-118.547939 33.425641 -86.0
-118.54572 33.428919 -76.8
-118.624606 33.483606 -190.2
-118.60296 33.468854 -15.1
-118.557054 33.499708 -261.5
-118.568026 33.429013 -87.8
-118.574357 33.431702 -87.8
-118.585302 33.422046 -351.1
-118.584558 33.428624 -140.8
-118.591902 33.431771 -157.3
-118.52167 33.38927 -323.7
-118.588647 33.45294 -49.4
-118.585849 33.455065 -8.8
-118.588138 33.456679 -14.6
-118.54205 33.385581 -486.5
-118.610986 33.472333 -65.8
-118.577297 33.437779 -82.3
-118.569909 33.437821 -13.3
-118.575057 33.439598 -42.1
-118.54027 33.50315 -290.8
-118.595852 33.500892 -241.4
-118.507432 33.401345 -95.1
-118.58358 33.441993 -86.0
-118.5419 33.433952 -13.7
-118.573954 33.434074 -86.0
-118.594655 33.461162 -21.9
-118.610667 33.4774 -78.6
-118.573679 33.443868 -17.8
-118.578141 33.445809 -45.7
-118.579222 33.447154 -31.1
-118.59856 33.467037 -16.0
-118.523664 33.402064 -151.8
-118.526206 33.406596 -128.0
-118.599435 33.465459 -21.9
-118.598338 33.465865 -16.0
-118.610978 33.458662 -95.1
-118.595472 33.436873 -150.0
-118.600472 33.440487 -155.4
-118.626128 33.466764 -93.3
-118.530553 33.413838 -113.4
-118.530264 33.416641 -96.9
-118.587355 33.478011 -60.4
-118.612531 33.465701 -76.8
-118.539442 33.430033 -56.7
-118.541633 33.431677 -58.5
-118.545547 33.432299 -21.9
-118.620245 33.464557 -91.4
-118.625045 33.465787 -93.3
-118.496991 33.384714 -86.0
-118.55824 33.428919 -84.1
