-163.651547 70.373865 -34.7
-163.649768 70.445151 -36.6
-163.648724 70.436252 -36.6
-164.281146 70.305751 -40.2
-164.19832 70.326282 -38.4
-164.311521 70.414105 -42.1
-163.884592 69.912241 -25.6
-163.926242 69.930159 -27.4
-165.892011 70.07542 -42.1
-165.770791 70.032509 -42.1
-163.303715 70.494598 -36.6
-163.303102 70.490347 -36.6
-165.72846 70.060364 -42.1
-165.719093 70.011362 -42.1
-165.52889 69.93533 -38.4
-165.620184 69.924527 -40.2
-164.155169 70.351566 -40.2
-164.462827 70.0697 -36.6
-165.109623 70.314455 -43.9
-165.03007 70.251922 -42.1
-165.074737 70.170278 -40.2
-165.116798 70.156081 -40.2
-162.642268 70.488113 -32.9
-165.663103 70.259524 -43.9
-163.163237 70.303731 -29.3
-163.131818 70.15601 -23.8
-163.025868 70.089226 -19.6
-163.178241 70.115452 -23.8
-163.21327 70.36844 -31.1
-164.419895 70.401843 -42.1
-164.639575 70.35612 -42.1
-162.369224 70.472457 -29.3
-162.382671 70.45979 -27.4
-163.569175 70.063869 -27.4
-163.394818 70.236061 -29.3
-163.351021 70.204651 -29.3
-163.508386 70.248659 -27.4
-163.350812 70.013839 -23.8
-164.113367 70.084694 -32.9
-164.147464 70.088371 -32.9
-165.100883 69.997439 -38.4
-165.328956 70.006173 -38.4
-165.329402 70.022179 -38.4
-165.431926 70.047903 -40.2
-164.867006 70.31081 -42.1
-165.003163 70.309987 -42.1
-165.713226 70.315027 -43.9
-164.82474 70.093837 -38.4
-164.685732 70.090764 -38.4
-165.56865 69.847156 -40.2
-165.522551 69.844885 -38.4
-163.758143 70.446776 -36.6
-164.110248 70.458719 -42.1
-163.972559 70.449295 -42.1
-163.787046 70.395075 -34.7
-164.921336 69.941665 -36.6
-162.897747 70.503989 -34.7
-164.734688 69.969582 -36.6
-162.989521 70.498347 -34.7
-163.002851 70.519163 -34.7
-163.121415 70.477799 -34.7
-164.692954 70.240536 -40.2
-164.618717 70.445698 -43.9
-164.517209 70.427997 -43.9
-164.555086 70.430357 -43.9
-164.018003 70.145961 -32.9
-163.791055 70.174413 -31.1
-164.15316 70.01222 -29.3
-162.354954 70.332427 -18.1
-162.802067 70.334735 -27.4
-162.868761 70.277665 -27.4
-164.786385 70.061253 -38.4
-165.62482 70.036131 -42.1
-163.74724 70.362848 -34.7
-163.700384 70.323236 -34.7
-163.745696 70.308237 -34.7
-165.879441 70.461496 -43.9
-163.745797 70.275427 -32.9
-163.265633 70.008338 -21.9
-164.194998 70.012595 -31.1
-165.233494 70.049469 -40.2
-165.164787 70.156173 -40.2
-165.33009 69.914965 -38.4
-165.482776 70.1026 -42.1
-165.007866 70.473625 -43.9
-163.436898 69.993029 -23.8
-163.79728 70.043832 -25.6
-165.888279 70.32359 -43.9
-164.646527 70.558715 -43.9
-164.650991 70.514775 -43.9
-164.51841 70.532086 -43.9
-164.428493 70.546292 -45.7
-165.291189 70.489744 -42.1
-165.303907 70.52014 -42.1
-165.894473 69.93536 -42.1
-165.893216 69.885939 -42.1
-165.594928 70.312722 -43.9
-165.887076 70.306352 -43.9
-165.845122 70.280937 -43.9
-165.847929 69.847967 -40.2
-165.056113 69.89381 -36.6
-164.415995 70.103732 -36.6
-164.238569 70.140776 -36.6
-164.635716 70.033481 -38.4
-165.34889 70.47426 -42.1
-165.360155 70.356256 -43.9
-165.009034 69.860165 -36.6
-165.009217 69.835086 -36.6
-164.971819 69.910706 -38.4
-163.700921 70.101224 -25.6
-163.87862 70.476563 -40.2
-163.804179 70.439619 -38.4
-164.198888 70.214431 -36.6
-164.019943 70.226012 -36.6
-162.941984 70.254241 -27.4
-162.981386 70.258427 -27.4
-163.003797 70.210691 -25.6
-164.543747 69.891266 -32.9
-164.151355 70.130064 -34.7
-164.502456 70.02826 -36.6
-164.463633 70.201076 -38.4
-165.61033 70.385712 -42.1
-164.697356 70.493824 -43.9
-164.68135 70.415708 -43.9
-164.831539 70.382077 -42.1
-165.61277 70.268229 -43.9
-165.52991 70.249015 -43.9
-164.550199 70.174214 -38.4
-164.377774 69.827474 -27.4
-165.418786 70.200555 -42.1
-164.725378 70.340265 -42.1
-164.200861 70.450244 -42.1
-164.239663 70.505644 -43.9
-164.181948 70.532077 -43.9
-163.395046 70.313499 -31.1
-164.021038 70.302822 -36.6
-165.024497 70.414491 -43.9
-165.028233 70.372721 -43.9
-163.654726 70.320775 -32.9
-163.563111 70.434457 -34.7
-163.833858 69.948477 -27.4
-165.527386 69.960453 -40.2
-165.445738 69.927159 -38.4
-165.5698 69.924343 -38.4
-164.239525 70.058476 -32.9
-165.075827 70.294428 -42.1
-165.026624 70.222228 -42.1
-165.14209 70.156185 -40.2
-165.771834 69.999372 -42.1
-165.822444 70.144908 -43.9
-164.883448 70.063129 -38.4
-162.540681 70.488901 -32.9
-162.440536 70.489739 -31.1
-163.171947 70.29974 -31.1
-163.21748 70.251583 -29.3
-163.096618 70.016056 -18.5
-163.308558 70.356387 -31.1
-164.467043 70.375516 -43.9
-164.37987 70.420242 -42.1
-164.518074 70.342267 -41.3
-163.567984 70.106895 -27.4
-163.531504 70.083282 -27.4
-162.660988 70.240505 -21.9
-164.835029 69.864868 -34.7
-163.402627 70.106977 -27.4
-163.92974 70.042203 -31.1
-163.973412 70.056895 -32.9
-163.973298 70.074856 -31.1
-164.103823 70.075852 -31.1
-165.015991 70.004142 -38.4
-165.146438 70.081772 -40.2
-165.185171 69.948185 -38.4
-165.335123 70.071835 -40.2
-164.908137 70.245415 -43.5
-164.993645 70.278336 -42.1
-163.034936 70.445226 -32.9
-162.990427 70.457543 -32.9
-164.852513 70.202777 -40.2
-164.791556 70.185023 -40.2
-164.836556 70.164004 -40.2
-164.745338 70.090699 -38.4
-165.939579 70.020003 -42.1
-163.433356 70.386153 -32.9
-163.391462 70.398621 -32.9
-165.523089 69.869624 -38.4
-165.471376 69.844269 -38.4
-164.063834 70.480822 -42.1
-164.019137 70.511367 -42.1
-164.594876 70.292949 -40.2
-163.477395 70.488743 -36.6
-164.468298 70.292796 -40.2
-162.704795 70.517246 -34.7
-164.506969 70.133896 -38.4
-164.735846 69.941828 -36.6
-163.031899 70.491416 -32.9
-163.165306 70.457594 -32.9
-165.698188 70.496074 -43.9
-164.062851 70.120357 -32.9
-164.017792 70.128009 -32.9
-164.107492 69.948158 -29.3
-162.426871 70.413027 -27.4
-162.482674 70.333539 -23.8
-162.743001 70.300278 -25.6
-165.524982 70.017741 -40.2
-165.806607 70.491335 -43.9
-165.803196 70.439809 -43.9
-163.700339 70.255813 -31.1
-163.726634 70.243391 -31.1
-164.104508 69.983004 -31.1
-165.272382 70.047585 -40.2
-165.27009 70.067985 -40.2
-165.218778 70.110188 -40.2
-165.135495 70.187047 -42.1
-165.277447 70.186779 -42.1
-165.375139 69.902773 -38.4
-165.62381 70.068226 -42.1
-165.63417 70.091071 -42.1
-164.938885 70.489528 -43.9
-164.896599 70.518919 -43.9
-163.038185 70.420337 -32.9
-165.550658 70.124224 -42.1
-163.699852 70.019077 -29.3
-163.700665 70.061098 -27.4
-163.700557 70.044063 -27.4
-164.647424 70.550113 -43.9
-165.221442 70.455897 -43.9
-165.360833 70.535503 -42.1
-165.227587 69.834747 -36.6
-165.093422 69.832231 -36.6
-165.942439 69.874318 -42.1
-165.277688 70.260885 -43.9
-165.273006 70.274931 -43.9
-165.795195 69.882217 -40.2
-163.880946 70.175124 -32.9
-163.970768 70.232664 -34.7
-165.651235 69.827375 -38.4
-165.310016 70.535697 -42.1
-165.846283 70.296796 -43.9
-165.890215 70.262902 -43.9
-165.768914 70.164041 -43.9
-163.638396 70.502627 -38.4
-163.734634 70.50822 -40.2
-163.707506 70.508323 -38.4
-165.095035 69.88295 -36.6
-164.283551 70.092106 -34.7
-164.462396 70.006532 -34.7
-165.406914 70.519185 -42.1
-165.388262 70.40266 -43.9
-165.440237 70.401754 -43.9
-164.985948 69.856552 -36.6
-164.880377 69.855077 -36.6
-163.838772 70.162304 -31.1
-163.930391 70.505564 -42.1
-163.990349 70.55116 -43.9
-163.963742 70.551055 -43.9
-164.199482 70.180116 -36.6
-164.151787 70.178983 -34.7
-163.08207 70.330581 -29.3
-162.98764 70.274919 -27.4
-163.102083 70.275964 -27.4
-163.131039 70.248387 -25.6
-163.005203 70.227996 -25.6
-163.002051 70.183909 -23.8
-165.543445 70.535104 -42.1
-165.55014 70.4172 -43.9
-164.632683 69.845767 -32.9
-164.150465 70.113418 -34.7
-164.1483 70.10513 -34.7
-164.496855 69.91849 -32.9
-165.45966 70.341852 -43.9
-164.377909 70.210304 -38.4
-165.568314 70.401984 -43.9
-164.75736 70.490209 -43.9
-163.129402 70.299959 -29.3
-164.330624 69.964155 -31.1
-164.218622 69.832331 -29.3
-164.222693 69.842796 -29.3
-165.417899 70.259852 -43.9
-165.361789 70.170945 -42.1
-164.834498 70.276904 -42.1
-164.772327 70.280461 -42.1
-164.787285 70.220616 -40.2
-164.201912 70.476512 -42.1
-163.972872 70.291079 -36.6
-164.065509 70.363393 -38.4
-165.01485 70.490581 -43.9
-165.064451 70.490484 -43.9
-165.069568 70.358384 -43.9
-163.794416 69.870255 -25.6
-163.65861 70.412924 -36.6
-163.563783 70.425284 -34.7
-164.237112 70.255967 -38.4
-164.282679 70.323378 -40.2
-164.334652 70.413808 -42.1
-164.333464 70.388128 -42.1
-164.028728 69.846217 -27.4
-163.883744 69.946165 -27.4
-164.197428 70.397037 -40.2
-163.74916 69.859256 -25.6
-164.196298 70.370348 -40.2
-165.078187 70.276604 -42.1
-165.103505 70.245888 -42.1
-165.081884 70.233948 -42.1
-165.745248 69.973649 -42.1
-165.887206 70.12665 -43.9
-164.928765 70.077748 -38.4
-163.34808 70.298699 -31.1
-163.172731 70.281859 -29.3
-163.089366 70.141756 -21.9
-163.300377 70.448461 -34.7
-163.311903 70.339189 -31.1
-164.422745 70.411214 -42.1
-162.257081 70.485524 -31.1
-162.611792 70.458686 -31.1
-163.522845 70.030754 -25.6
-162.981713 70.240844 -26.9
-162.31103 70.348668 -17.9
-164.836662 69.873296 -34.7
-164.779828 69.875851 -34.7
-163.216592 70.135685 -25.6
-163.462327 70.245377 -29.3
-163.43434 70.24674 -29.3
-163.61012 70.185605 -25.6
-163.435393 70.100134 -28.7
-164.149628 70.038838 -31.1
-163.972512 70.040896 -32.9
-165.056156 69.983483 -38.4
-165.056655 69.959056 -38.4
-164.88825 70.184466 -40.2
-165.660612 70.308333 -43.9
-164.793384 70.156203 -40.2
-164.835965 70.110678 -40.2
-165.276667 69.878355 -38.4
-163.344104 70.359075 -31.1
-163.341626 70.423938 -32.9
-162.989804 70.472732 -34.7
-165.480969 70.018991 -40.2
-165.425674 69.833467 -38.4
-164.154245 70.436643 -42.1
-164.060888 70.463748 -42.1
-164.061996 70.472261 -42.1
-164.106387 70.490854 -43.9
-164.154616 70.499742 -43.9
-164.154195 70.527554 -43.9
-164.062544 70.497774 -42.1
-165.556202 70.473794 -43.9
-163.746061 70.412739 -34.7
-163.392038 70.072694 -25.6
-163.347501 70.08825 -25.6
-163.092063 70.075478 -20.1
-163.436587 70.472898 -36.6
-162.578302 70.517338 -34.7
-162.322934 70.519206 -32.9
-164.018325 70.528516 -42.1
-164.633694 70.013185 -36.6
-163.167672 70.430746 -32.9
-163.208285 69.995897 -20.1
-165.583382 70.458997 -43.9
-165.619265 70.445112 -43.9
-164.467348 70.44633 -43.9
-163.835517 70.100332 -31.1
-164.286646 70.262167 -38.4
-164.003969 69.987205 -29.3
-162.762399 70.34604 -27.4
-162.66355 70.332478 -25.6
-162.669438 70.303666 -23.8
-164.803826 70.071266 -38.4
-165.579596 70.047233 -40.2
-163.787773 70.350614 -34.7
-165.88332 70.435632 -43.9
-165.84659 70.407146 -43.9
-163.701369 70.297343 -32.9
-165.281824 70.067028 -40.2
-165.189123 70.097033 -40.2
-165.224769 70.184828 -42.1
-165.234507 70.187334 -42.1
-165.255475 70.189907 -42.1
-165.276182 69.896448 -38.4
-165.581872 70.100389 -42.1
-164.96112 70.518942 -42.1
-164.696003 70.529213 -43.9
-163.125821 70.418042 -31.1
-165.635728 70.124354 -42.1
-165.563337 70.139401 -42.1
-165.887242 70.3668 -43.9
-165.850083 70.338902 -43.9
-164.605889 70.522968 -45.7
-165.323489 70.24635 -42.1
-165.201977 70.293787 -42.1
-165.747502 69.829324 -40.2
-165.664817 69.888699 -38.4
-164.379673 70.508753 -43.9
-165.606176 69.841777 -38.4
-165.231499 70.536454 -42.1
-163.477368 70.516935 -38.4
-163.650003 70.479694 -36.6
-164.289092 70.253718 -38.4
-165.014664 69.915519 -38.4
-164.418364 70.128458 -36.6
-164.329684 70.123709 -36.6
-164.501478 69.847088 -29.3
-164.368409 69.930962 -31.1
-164.36848 69.947423 -31.1
-165.416724 70.488764 -42.1
-165.469403 70.444104 -42.1
-165.380121 70.356415 -43.9
-164.889939 69.83038 -34.7
-164.881574 69.872341 -36.6
-163.837226 70.544519 -42.1
-164.14253 70.245564 -36.6
-164.11059 70.194558 -36.6
-163.129252 70.333229 -31.1
-163.17186 70.21189 -25.6
-163.701037 70.134382 -27.4
-163.612552 70.142418 -25.6
-164.588269 69.944824 -34.7
-164.543918 69.922011 -34.7
-164.731223 69.854769 -34.7
-164.504586 70.05908 -36.6
-164.459492 69.860059 -29.3
-164.460415 69.884418 -31.1
-165.352526 70.294088 -43.9
-164.462097 70.173638 -38.4
-164.794435 70.461024 -43.9
-163.215284 70.335064 -31.1
-165.565933 70.260774 -43.9
-165.516907 70.25957 -43.9
-164.179959 69.830443 -29.3
-164.362422 69.830407 -27.4
-165.529561 70.184206 -43.9
-164.835293 70.348154 -42.1
-164.836504 70.268346 -42.1
-164.78874 70.249589 -40.2
-165.660892 70.218966 -42.1
-163.746568 69.973623 -27.4
-163.749386 69.885427 -25.6
-164.018273 69.888598 -27.4
-165.704575 70.139994 -43.9
-165.760849 70.110572 -43.9
-164.200966 70.458909 -42.1
-164.241047 70.514144 -43.9
-163.48035 70.294721 -29.3
-163.610568 70.338548 -32.9
-163.92695 69.905015 -27.4
-165.779326 70.054133 -42.1
-163.256695 70.487857 -34.7
-165.720139 70.020333 -42.1
-164.23814 70.066501 -32.9
-164.431486 70.044786 -34.7
-164.193166 70.379218 -40.2
-165.061997 70.097006 -40.2
-165.847791 70.016114 -42.1
-164.955959 70.140266 -40.2
-164.971793 70.171445 -40.2
-163.216449 70.243264 -27.4
-163.008235 70.149071 -21.9
-163.255965 70.444416 -32.9
-163.305555 70.373519 -31.1
-164.377926 70.349922 -40.2
-162.507299 70.458498 -29.3
-163.617475 70.10778 -25.6
-163.523891 70.014334 -25.6
-163.565898 70.029524 -27.4
-162.859707 70.240702 -21.9
-162.908875 70.240091 -23.8
-163.480107 70.252155 -29.3
-163.656207 70.17539 -27.4
-163.932087 70.016165 -29.3
-164.972717 70.294702 -42.1
-165.804379 70.328509 -42.1
-165.712383 70.355784 -42.1
-164.826016 70.125521 -38.4
-163.526485 70.250865 -27.4
-165.230277 69.926015 -38.4
-165.231371 69.876745 -38.4
-163.43628 70.420657 -32.9
-163.472347 70.445051 -34.7
-165.476046 69.96692 -40.2
-164.152481 70.468298 -42.1
-163.30816 70.095443 -25.6
-163.259053 70.051882 -21.9
-163.430059 70.492106 -36.6
-164.92675 69.98958 -36.6
-164.880564 70.004651 -36.6
-164.780743 69.99935 -36.6
-163.168463 70.006546 -19.2
-165.803382 70.456944 -43.9
-165.726619 70.458736 -43.9
-165.699777 70.458715 -43.9
-164.574421 70.42741 -43.9
-164.469241 70.25407 -40.2
-164.016155 70.015688 -31.1
-164.062635 70.003042 -31.1
-164.06364 69.977027 -31.1
-164.105646 69.97388 -31.1
-162.53204 70.412816 -27.4
-162.715163 70.332405 -25.6
-162.856623 70.300459 -27.4
-165.532241 70.066259 -42.1
-165.913117 70.41578 -43.9
-163.349988 70.009188 -21.9
-165.308484 69.9063 -38.4
-164.831215 70.520924 -43.9
-164.743825 70.537591 -43.9
-163.125374 70.410434 -32.4
-163.388058 70.005262 -23.8
-163.656566 70.017808 -27.4
-163.653068 70.061174 -27.4
-163.834795 70.0229 -27.4
-164.476331 70.495273 -43.9
-165.180149 70.520706 -42.1
-165.230736 69.86025 -38.4
-165.18385 69.870245 -38.4
-165.892207 69.910357 -42.1
-165.845931 69.898035 -42.1
-165.941142 69.840547 -42.1
-165.252338 70.311735 -43.9
-165.173205 70.326862 -43.9
-165.275171 70.341998 -43.9
-165.79707 69.832621 -40.2
-165.796273 69.890823 -40.2
-163.926794 70.320868 -36.6
-165.755469 70.178199 -43.9
-165.748824 70.168639 -43.3
-163.737396 70.497903 -38.4
-165.05616 69.877731 -38.4
-164.375679 70.099616 -36.6
-164.335572 70.173353 -36.6
-165.415905 70.430824 -42.1
-165.447612 70.417252 -43.9
-164.917528 69.846091 -34.7
-164.108749 70.16779 -34.7
-163.083556 70.399443 -31.1
-162.904288 70.265988 -27.4
-163.004724 70.234782 -27.4
-163.567222 70.14145 -27.4
-164.586817 69.960437 -34.7
-164.588849 69.936934 -34.7
-164.545664 69.860598 -31.1
-164.588354 69.858168 -32.9
-164.109502 70.127126 -34.7
-164.457234 69.934161 -32.9
-165.396641 70.281784 -43.9
-164.719574 70.459204 -43.9
-163.130103 70.283339 -27.4
-163.145739 70.296979 -29.3
-164.487139 69.831375 -29.3
-164.362742 69.838211 -27.4
-164.455925 69.848573 -29.3
-165.371673 70.20869 -42.1
-165.613203 70.189788 -43.9
-164.693502 70.371174 -42.1
-164.716585 70.326537 -42.1
-164.788925 70.241077 -40.2
-163.305804 70.280738 -31.1
-163.698858 70.010581 -27.4
-164.062523 69.934575 -29.3
-165.730725 70.101819 -43.9
-164.290256 70.444547 -42.1
-164.277775 70.447944 -42.1
-164.01954 70.329396 -36.6
-164.107967 70.36522 -40.2
-164.104883 70.413586 -40.2
-165.113006 70.474787 -43.9
-165.08356 70.385488 -43.9
-165.678763 70.071648 -42.1
-165.6535 69.959996 -40.2
-163.612899 70.312777 -32.9
-163.651073 70.382747 -34.7
-163.631563 70.412812 -36.6
-164.154628 70.305704 -38.4
-164.282803 70.318657 -40.2
-164.027009 69.837232 -27.4
-163.971225 69.836702 -25.6
-165.571762 69.950711 -38.4
-165.764601 69.938932 -42.1
-163.749871 69.867326 -25.6
-165.77162 70.007027 -42.1
-165.313693 70.156007 -42.1
-164.972263 70.072767 -40.2
-164.972632 70.080608 -40.2
-165.031723 70.140485 -40.2
-162.589603 70.488598 -32.9
-165.477361 70.12488 -42.1
-165.378465 69.937418 -38.4
-165.378881 69.953324 -38.4
-163.002701 70.17528 -21.9
-163.215308 70.110565 -23.8
-163.434956 70.334109 -29.3
-164.654179 70.415813 -43.9
-164.556728 70.396526 -42.1
-164.641193 70.371009 -42.1
-162.456469 70.459104 -27.4
-163.582347 70.083051 -29.3
-163.634121 70.083644 -28.9
-164.678266 69.870792 -34.7
-163.350215 70.170909 -27.4
-163.393703 70.218661 -29.3
-163.483023 70.112699 -27.4
-163.474575 70.027483 -25.6
-163.475037 70.035039 -25.6
-165.707498 70.26893 -43.9
-164.061736 70.036835 -29.3
-165.057201 69.999464 -38.4
-165.146526 70.073663 -40.2
-165.229971 69.942592 -38.4
-165.34774 70.066556 -40.2
-164.98192 70.221799 -40.2
-164.981841 70.242455 -41.5
-165.699445 70.306497 -43.9
-165.750497 70.355369 -42.1
-164.738429 70.171115 -40.2
-164.801199 70.090479 -38.4
-163.567919 70.22706 -27.4
-165.935216 70.057467 -43.9
-163.346265 70.340622 -31.1
-163.342005 70.375386 -31.1
-163.514841 70.403616 -34.7
-163.369444 70.413247 -32.9
-163.517034 70.455193 -34.7
-163.475888 70.47178 -36.6
-164.11016 70.441242 -42.1
-163.926331 70.4438 -40.2
-164.52635 70.259405 -40.2
-163.866251 70.41225 -36.6
-163.136466 70.048028 -20.1
-164.538299 70.299053 -40.2
-163.925227 70.36479 -36.6
-162.347303 70.503687 -31.1
-164.061125 70.522279 -43.9
-164.505973 70.142015 -38.4
-164.628843 69.909519 -34.7
-164.678954 69.911122 -34.7
-164.778442 69.919144 -36.6
-164.685134 70.011499 -36.6
-163.07725 70.512596 -34.7
-163.165052 70.502399 -34.7
-164.062545 70.153804 -34.7
-164.017441 70.154603 -32.9
-164.062462 70.020013 -31.1
-163.974759 69.990166 -29.3
-162.585906 70.332743 -23.8
-164.828376 70.07026 -38.4
-163.698954 70.348891 -34.7
-165.673375 70.53483 -43.9
-163.787007 70.306658 -34.7
-163.786849 70.270993 -34.7
-163.744014 70.225592 -32.9
-163.743334 70.200274 -31.1
-165.483202 70.09876 -42.1
-164.829178 70.542517 -43.9
-164.971706 70.537341 -42.1
-165.003161 70.519455 -42.1
-164.829616 70.538653 -43.9
-162.874369 70.412605 -31.1
-163.615823 70.008362 -27.4
-163.65607 70.009013 -27.4
-165.848754 70.37333 -43.9
-164.424637 70.437269 -42.1
-164.444071 70.533502 -45.7
-165.315184 70.416285 -43.9
-165.336392 70.535545 -42.1
-165.893481 69.926975 -42.1
-165.845872 69.906455 -42.1
-165.913398 69.813845 -40.2
-164.254418 70.42131 -42.1
-164.334653 70.429984 -42.1
-163.881111 70.226358 -34.7
-165.802202 70.25055 -43.9
-165.800152 70.215364 -43.9
-165.846025 70.181657 -43.9
-165.712662 70.181978 -42.1
-163.554628 70.517953 -38.4
-163.788171 70.49131 -38.4
-165.049896 69.836336 -36.6
-164.367621 69.955358 -31.1
-164.417274 69.995345 -32.9
-164.463222 70.00165 -34.7
-165.442508 70.386817 -43.9
-164.921423 69.901427 -36.6
-164.83868 69.908156 -36.6
-164.920025 69.915002 -36.6
-163.839358 70.153052 -31.1
-164.372268 70.541671 -43.9
-164.151591 70.170442 -34.7
-163.170087 70.379319 -31.1
-163.172996 70.264421 -27.4
-163.087192 70.253703 -25.6
-163.172506 70.228452 -25.6
-164.547279 69.844823 -31.1
-164.504581 70.07463 -36.6
-164.41527 69.924431 -31.1
-165.634864 70.385752 -42.1
-165.60274 70.370195 -43.9
-164.696392 70.485461 -43.9
-164.845062 70.429909 -43.9
-163.042539 70.300851 -27.4
-163.081841 70.304364 -27.4
-164.195298 69.890323 -29.3
-165.323721 70.189311 -42.1
-165.566794 70.195299 -43.9
-164.79067 70.275587 -42.1
-162.691803 70.48818 -32.9
-163.172022 70.317426 -31.1
-163.024425 70.101423 -20.1
-163.213927 70.419404 -32.9
-164.469494 70.415626 -43.3
-163.836718 69.986761 -27.4
-162.688422 70.473353 -32.9
-162.528055 70.439595 -29.3
-164.779698 69.866644 -34.7
-163.434593 70.203275 -29.3
-163.425499 70.100858 -28.9
-164.088354 70.084507 -32.9
-164.022511 70.068143 -29.3
-164.102707 70.050474 -31.1
-165.097 69.945166 -38.4
-164.731679 69.895746 -34.7
-165.325172 69.964913 -38.4
-164.982289 70.202378 -40.2
-164.90408 70.202553 -40.2
-164.981921 70.225739 -40.2
-164.890207 70.25159 -42.1
-164.948467 70.357329 -43.9
-165.739287 70.35562 -42.1
-164.836161 70.207912 -40.2
-164.751962 70.125518 -38.4
-165.740005 70.370831 -42.1
-165.803774 70.043564 -42.1
-165.992842 70.051049 -43.9
-165.230505 69.909341 -38.4
-165.330519 69.866957 -38.4
-163.34668 70.3496 -31.1
-163.390852 70.365023 -31.1
-163.343481 70.479508 -34.7
-163.344041 70.449376 -34.7
-163.436089 70.463984 -34.7
-165.527046 69.985345 -40.2
-164.062188 70.4894 -42.1
-165.756563 70.414355 -43.9
-165.595371 70.445014 -43.9
-163.307311 70.086942 -25.6
-163.262719 70.034819 -21.9
-163.215213 70.085305 -23.8
-164.498394 70.338012 -42.1
-164.423244 70.323344 -40.2
-165.01498 69.977268 -38.4
-164.973677 69.967571 -38.4
-164.91483 70.005116 -38.4
-162.864555 70.487893 -34.7
-162.65977 70.50441 -34.7
-162.294983 70.504075 -31.1
-164.674359 70.109993 -38.4
-164.637572 70.0955 -38.4
-164.778696 69.928366 -36.6
-164.683868 69.956452 -34.7
-164.633527 70.00765 -36.6
-163.179857 70.011813 -20.1
-165.561146 70.458884 -43.9
-165.753937 70.520404 -43.9
-164.630103 70.216805 -40.2
-163.973556 70.140049 -32.9
-164.521472 70.247447 -40.2
-164.364643 70.245315 -38.4
-163.973806 69.964115 -29.3
-164.060934 69.951009 -29.3
-165.624873 70.044742 -42.1
-163.679348 70.243295 -31.1
-163.698544 70.221314 -31.1
-164.323017 69.988667 -32.9
-165.187693 70.01881 -40.2
-165.262311 70.1803 -42.1
-164.988238 70.489792 -43.9
-164.927239 70.539515 -42.1
-162.663449 70.412211 -31.1
-162.97708 70.412012 -32.9
-165.51419 70.140121 -40.2
-163.461442 69.993443 -25.6
-163.791742 70.077989 -27.4
-163.833984 70.057733 -29.3
-165.847171 70.390082 -43.9
-164.563015 70.55174 -45.7
-164.516229 70.549098 -43.9
-165.263387 70.503887 -42.1
-165.314872 70.503591 -42.1
-165.229516 69.843358 -36.6
-165.940555 69.832306 -42.1
-165.616699 70.355671 -43.9
-165.222023 70.220036 -42.1
-165.175678 70.293926 -42.1
-165.716259 69.847366 -40.2
-165.892832 70.211304 -43.9
-165.659638 70.154378 -43.9
-165.708524 70.158994 -43.9
-163.425687 70.516774 -38.4
-163.749316 70.512745 -40.2
-163.703155 70.449419 -36.6
-164.417535 70.112112 -36.6
-164.462904 70.112896 -38.4
-164.499971 69.85312 -29.3
-164.587032 70.048059 -36.6
-164.542513 70.073306 -36.6
-164.633683 70.018086 -36.6
-163.00479 70.397513 -31.1
-165.75611 70.136455 -43.9
-165.334041 70.403256 -43.9
-165.391885 70.371739 -43.9
-164.998962 69.831415 -36.6
-164.89439 69.84248 -34.7
-164.883258 69.913478 -36.6
-163.835902 70.109091 -31.1
-163.743948 70.140099 -31.1
-163.879236 70.46795 -38.4
-163.004687 70.380028 -31.1
-163.002597 70.30103 -27.4
-165.581772 70.50469 -42.1
-165.518156 70.488578 -42.1
-164.543606 69.901386 -32.9
-164.634575 69.981179 -34.7
-164.373935 70.176081 -36.6
-164.867522 70.429953 -43.9
-164.818785 70.42988 -43.9
-164.792981 70.402844 -43.9
-164.193978 69.898651 -29.3
-164.278364 69.833852 -29.3
-165.418689 70.217589 -43.9
-165.386371 70.170964 -42.1
-164.784103 70.327767 -42.1
-164.812132 70.245199 -40.2
-164.800404 70.214958 -40.2
-163.347871 70.281363 -31.1
-163.794378 69.91164 -25.6
-164.12062 69.869284 -29.3
-163.434799 70.282055 -29.3
-164.063535 70.371032 -38.4
-165.074873 70.503301 -42.1
-165.048634 70.503015 -42.1
-165.10545 70.445357 -43.9
-163.612082 70.330313 -32.9
-163.565028 70.408209 -34.7
-163.604266 70.407332 -34.7
-164.196857 70.35244 -40.2
-163.792512 69.844843 -25.6
-163.882602 69.954925 -27.4
-165.718406 69.994709 -42.1
-164.361461 70.035525 -34.7
-164.36843 70.031413 -32.9
-165.109741 70.140592 -40.2
-165.031914 70.113473 -40.2
-165.847323 69.983175 -42.1
-165.856957 70.128467 -43.9
-164.246803 70.383997 -40.2
-164.974061 70.040413 -38.4
-164.945531 70.110162 -40.2
-164.900988 70.125679 -40.2
-164.893972 70.171836 -40.2
-164.020654 70.277063 -36.6
-164.110631 69.850457 -29.3
-164.147442 69.886132 -29.3
-164.017014 69.905602 -29.3
-164.241689 70.440709 -42.1
-164.289817 70.461979 -42.1
-164.321777 70.499877 -43.9
-163.974736 70.324181 -36.6
-164.063341 70.379646 -38.4
-165.67677 69.963454 -40.2
-163.52143 70.3271 -31.1
-163.564531 70.460253 -36.6
-164.191394 70.291303 -38.4
-164.237997 70.312855 -38.4
-164.333904 70.380281 -42.1
-163.959169 69.831321 -25.6
-163.972546 69.862034 -27.4
-163.879468 69.877652 -25.6
-163.884245 69.903734 -25.6
-163.927619 69.93893 -29.3
-165.137731 70.140613 -40.2
-165.804227 70.026312 -42.1
-164.930485 70.060253 -38.4
-164.882542 70.078049 -38.4
-164.881516 70.09864 -38.4
-164.881486 70.105358 -40.2
-164.851312 70.125685 -40.2
-165.710943 70.260716 -43.9
-163.04294 70.131348 -20.1
-163.256847 70.366047 -31.1
-163.265856 70.353426 -31.1
-163.289237 70.345542 -31.1
-164.517242 70.393711 -42.1
-164.466297 70.370813 -42.1
-164.518782 70.336069 -41.0
-162.715528 70.473742 -32.9
-162.834671 70.4573 -32.9
-162.733144 70.457606 -32.9
-163.555525 70.083013 -27.4
-163.352066 70.242582 -29.3
-163.307624 70.196258 -27.4
-163.23475 70.160351 -25.6
-163.434477 70.0912 -28.3
-163.930549 70.034027 -31.1
-163.884458 70.067729 -31.1
-163.988019 70.085008 -31.1
-164.09773 70.034063 -29.3
-165.056461 70.016267 -38.4
-165.016285 70.012398 -38.4
-165.845477 70.0412 -42.1
-165.328421 69.997735 -38.4
-165.426411 69.982695 -40.2
-164.937317 70.185543 -40.2
-164.88828 70.220447 -40.2
-164.948383 70.294196 -42.1
-165.802668 70.345419 -42.1
-164.747356 70.201863 -40.2
-164.721209 70.202215 -40.2
-164.696256 70.202396 -40.2
-164.701547 70.170596 -38.4
-164.728116 70.125284 -38.4
-165.894868 70.046117 -43.9
-166.007502 70.035334 -43.9
-165.975226 70.008208 -42.1
-165.26657 69.931947 -38.4
-165.569575 69.873262 -38.4
-164.061767 70.514496 -43.9
-163.702535 70.416242 -34.7
-163.180333 70.072372 -21.9
-163.385792 70.486436 -36.6
-163.884351 70.350737 -36.6
-163.969679 70.528625 -43.9
-164.461446 70.141736 -38.4
-164.680794 69.92513 -36.6
-164.78154 70.008766 -36.6
-165.76025 70.489203 -43.9
-164.623563 70.308534 -42.1
-164.603528 70.471366 -45.7
-163.973163 70.148796 -32.9
-163.974227 70.124429 -31.1
-164.376697 70.244218 -38.4
-162.7135 70.348658 -25.6
-162.327313 70.33247 -18.1
-162.792058 70.298594 -25.6
-164.635884 70.048727 -38.4
-163.787447 70.324628 -34.7
-165.843194 70.490397 -43.9
-163.702129 70.263496 -32.9
-163.703485 70.243014 -31.1
-163.74372 70.191353 -31.1
-165.282237 70.075 -40.2
-165.215389 70.156194 -40.2
-165.277812 69.913458 -38.4
-165.354569 69.91303 -38.4
-165.561265 70.155263 -43.9
-165.846438 70.399091 -43.9
-164.470269 70.545815 -45.7
-164.427828 70.524789 -45.7
-165.249443 70.489075 -42.1
-165.228501 70.520314 -42.1
-165.332023 69.85861 -38.4
-165.365373 69.830847 -38.4
-165.327635 69.833389 -38.4
-165.191614 69.889224 -38.4
-165.803452 69.941658 -42.1
-165.600065 70.326819 -43.9
-165.276544 70.220212 -42.1
-165.221645 70.311744 -43.9
-165.72407 69.829406 -40.2
-165.621149 69.909292 -38.4
-165.716048 69.888278 -40.2
-163.837086 70.179766 -31.1
-163.97205 70.216076 -34.7
-165.892087 70.245096 -43.9
-165.889163 70.160043 -43.9
-163.619451 70.502057 -38.4
-163.703396 70.432682 -36.6
-164.196731 70.248613 -36.6
-164.324049 69.862763 -27.4
-164.418555 69.978368 -32.9
-164.548189 70.04947 -36.6
-164.544093 70.068616 -36.6
-165.402387 70.474199 -43.5
-165.436431 70.460389 -43.9
-165.434171 70.341746 -43.9
-165.472969 70.342056 -43.9
-165.009993 69.843989 -36.6
-164.872674 69.839022 -34.7
-164.921606 69.874892 -36.6
-164.881215 69.880233 -36.6
-163.791109 70.112812 -31.1
-164.971049 69.87079 -36.6
-164.37945 70.575393 -45.7
-164.207491 70.54872 -43.9
-163.838353 70.478766 -38.4
-163.880955 70.426224 -38.4
-163.924744 70.408488 -38.4
-163.169181 70.387582 -31.1
-163.12775 70.375402 -31.1
-163.04653 70.207367 -25.6
-165.504881 70.519176 -42.1
-164.105833 70.135907 -34.7
-164.106817 70.109051 -32.9
-164.062587 70.111245 -32.9
-164.846634 70.460925 -43.9
-164.764718 70.445896 -43.9
-164.768369 70.403112 -43.9
-164.636402 70.170268 -38.4
-164.53999 70.152643 -38.4
-164.241924 69.899975 -27.4
-164.324052 69.837236 -29.3
-165.543466 70.169964 -43.9
-164.78721 70.245311 -40.2
-163.348762 70.289784 -31.1
-164.146364 69.881349 -29.3
-164.290687 70.470036 -42.1
-163.975658 70.366578 -36.6
-165.763278 70.094206 -42.1
-165.670587 69.966773 -40.2
-163.648794 70.432171 -36.6
-163.298595 70.517054 -36.6
-164.191095 70.282558 -38.4
-163.303996 70.482145 -34.7
-165.725812 70.052209 -42.1
-164.065725 70.346585 -38.4
-164.154984 70.32129 -38.4
-164.324483 70.072006 -34.7
-165.031099 70.310671 -42.1
-165.043279 70.156195 -40.2
-165.838103 69.98687 -42.1
-164.91917 70.106394 -40.2
-165.402921 70.112075 -40.2
-163.258755 70.278113 -29.3
-163.263407 70.199858 -27.4
-163.260068 70.234521 -29.3
-163.305286 70.22193 -29.3
-163.391178 70.347965 -29.3
-164.380319 70.37617 -42.1
-164.470369 70.421888 -43.9
-163.52297 70.047859 -27.4
-163.617419 70.082954 -28.5
-162.637996 70.24083 -20.1
-163.395148 70.227229 -29.3
-163.566663 70.199847 -25.6
-163.349203 70.154237 -27.4
-163.482842 70.156404 -29.3
-164.023112 70.059777 -29.3
-165.143901 69.943608 -38.4
-165.104085 70.084885 -40.2
-165.48129 70.036987 -40.2
-164.918922 70.279904 -42.1
-164.860626 70.314045 -42.1
-165.678851 70.341188 -43.9
-164.766744 70.185718 -40.2
-164.827585 70.140485 -40.2
-164.745787 70.11148 -38.4
-163.610099 70.219527 -29.3
-163.386896 70.459999 -34.7
-165.473152 69.896732 -38.4
-164.151997 70.460252 -42.1
-163.972557 70.483446 -42.1
-163.972435 70.491506 -42.1
-164.570489 70.293119 -40.2
-163.346872 70.079442 -25.6
-163.020048 70.045554 -18.1
-164.560823 70.341383 -42.1
-163.925758 70.355416 -36.6
-162.87653 70.472859 -34.7
-162.766188 70.504328 -34.7
-164.018828 70.119446 -31.1
-164.837251 69.916977 -36.6
-164.778893 69.955744 -36.6
-164.686028 69.972414 -36.6
-164.687107 70.019237 -38.4
-163.162183 70.484695 -34.7
-165.682012 70.520044 -43.2
-163.929441 70.120481 -31.1
-162.367935 70.386801 -23.8
-162.408281 70.40825 -25.6
-162.430389 70.333873 -20.1
-165.574472 69.99425 -40.2
-165.624709 70.004317 -40.2
-165.481491 70.045445 -40.2
-165.530697 70.050499 -40.2
-165.802029 70.413988 -43.9
-163.284281 69.995592 -21.9
-163.335416 69.993593 -23.8
-164.147266 70.005949 -31.1
-164.152674 69.97047 -31.1
-165.187533 70.028243 -40.2
-165.14445 70.105767 -40.2
-164.898041 70.402467 -43.9
-164.862248 70.489441 -43.9
-164.969386 70.503558 -43.9
-165.512696 70.155459 -42.1
-163.476051 70.006103 -25.6
-163.792811 70.069387 -27.4
-163.830897 70.040016 -27.4
-165.283389 70.403566 -43.9
-165.215877 70.447354 -43.9
-165.254482 70.520278 -42.1
-165.374243 69.834164 -38.4
-165.185596 69.922638 -38.4
-165.490852 70.310759 -43.9
-165.22247 70.228351 -42.1
-165.302894 70.294004 -43.9
-163.926362 70.338761 -36.6
-165.844825 70.272126 -43.9
-165.802016 70.172316 -43.9
-165.889928 70.168389 -43.9
-165.846815 69.864765 -40.2
-163.651105 70.497469 -38.4
-163.651386 70.462629 -36.6
-164.28458 70.219323 -36.6
-164.288745 70.193576 -36.6
-165.094199 69.865886 -36.6
-165.678234 70.140498 -43.9
-163.789212 70.095436 -29.3
-163.744625 70.122407 -29.3
-164.181141 70.548846 -43.9
-163.895923 70.425444 -38.4
-164.289855 70.17648 -36.6
-164.094366 70.245249 -36.6
-164.019297 70.250956 -36.6
-163.002895 70.336349 -29.3
-162.923713 70.260208 -27.4
-163.03553 70.235773 -27.4
-163.171135 70.194208 -25.6
-165.56737 70.488668 -43.9
-164.838548 69.8911 -36.6
-164.546617 70.008829 -36.6
-164.498785 69.925141 -32.9
-164.463275 69.996977 -34.7
-164.546321 69.988848 -34.7
-164.633898 69.970169 -34.7
-165.575706 70.34227 -43.9
-164.744357 70.503768 -43.9
-164.738195 70.445855 -43.9
-164.759689 70.415286 -43.9
-165.565199 70.253172 -43.9
-164.241654 69.974804 -29.3
-164.185596 69.949379 -29.3
-164.190617 69.932877 -29.3
-164.462754 69.82992 -29.3
-165.468652 70.227874 -43.9
-164.835649 70.326794 -42.1
-164.743372 70.248039 -41.7
-165.777021 70.247079 -43.9
-163.839219 70.267048 -34.7
-163.791648 69.928912 -25.6
-164.333588 70.509614 -43.9
-165.059776 70.341549 -43.9
-163.606794 70.424693 -36.6
-163.65041 70.400314 -34.7
-163.180297 70.518976 -36.6
-164.192133 70.273404 -38.4
-164.19652 70.3168 -40.2
-163.834953 69.863287 -20.1
-164.016862 69.930547 -29.3
-165.526753 69.951126 -40.2
-164.109338 70.322044 -38.4
-164.371986 70.048418 -34.7
-164.225305 70.358998 -40.2
-165.081589 70.250959 -42.1
-165.068621 70.155993 -40.2
-165.047625 70.113861 -40.2
-165.768999 69.964893 -42.1
-164.980802 70.069994 -40.2
-164.971612 70.106059 -40.2
-164.91992 70.171599 -40.2
-163.213167 70.360295 -31.1
-163.433489 70.342979 -29.3
-164.418374 70.376467 -42.1
-164.517364 70.376196 -42.1
-163.931222 70.007776 -29.3
-162.356269 70.459847 -29.3
-163.56846 70.115421 -27.4
-163.394242 70.192855 -29.3
-163.973515 70.091082 -31.1
-164.016321 70.024404 -32.9
-165.141662 69.969147 -38.4
-165.096387 69.936007 -38.4
-165.332125 70.038838 -40.2
-165.332882 70.046986 -40.2
-164.975677 70.310018 -42.1
-163.035603 70.437096 -32.9
-165.76082 70.304344 -43.3
-165.893997 70.037817 -42.1
-165.943615 70.03431 -43.9
-165.953026 70.004726 -42.1
-165.937161 69.960146 -42.1
-163.389347 70.442523 -34.7
-163.078822 70.476498 -34.7
-165.390105 70.074756 -40.2
-163.787299 70.429684 -36.6
-165.681679 70.385955 -42.1
-165.662015 70.431035 -42.1
-164.615974 70.244548 -40.2
-163.836117 70.390997 -36.6
-163.087251 70.005705 -18.3
-164.927222 69.972288 -38.4
-163.925651 70.399895 -38.4
-162.958387 70.47203 -34.7
-164.560645 70.109771 -36.6
-164.731046 69.90412 -34.7
-164.684849 69.964413 -36.6
-165.608968 70.474108 -42.1
-164.629374 70.326085 -42.1
-164.380745 70.447143 -43.9
-163.882232 70.10993 -31.1
-164.052639 69.993566 -29.3
-162.509831 70.348922 -23.8
-162.456346 70.334355 -21.9
-162.257518 70.329668 -17.6
-164.783823 70.026151 -38.4
-165.802853 70.474739 -43.9
-163.702131 70.271723 -32.9
-163.786079 70.236018 -32.9
-165.28256 70.02974 -40.2
-165.177312 70.125122 -40.2
-165.375011 69.894551 -38.4
-165.53075 70.098895 -40.2
-164.975535 70.402467 -43.9
-163.106556 70.412608 -32.9
-163.055136 70.412286 -32.9
-165.524714 70.552842 -42.1
-163.586657 70.002936 -25.6
-163.745982 70.036391 -25.6
-165.887566 70.332387 -43.9
-165.244543 70.475484 -42.1
-165.205075 70.520684 -42.1
-165.336414 69.830848 -38.4
-165.183309 69.860688 -36.6
-165.845637 69.88944 -42.1
-165.180994 70.250081 -42.1
-165.247701 70.341763 -43.9
-165.81353 69.828586 -40.2
-164.379602 70.515823 -43.9
-165.610124 69.83122 -38.4
-165.845886 70.223051 -43.9
-163.619684 70.469044 -36.6
-163.525526 70.483949 -36.6
-164.325051 69.8711 -27.4
-165.431331 70.519064 -42.1
-165.462537 70.460248 -43.9
-165.466934 70.386807 -43.9
-164.882035 69.83865 -34.7
-163.881534 70.518488 -42.1
-164.110353 70.203163 -36.6
-163.128063 70.350118 -31.1
-163.130065 70.325035 -31.1
-163.047252 70.215975 -25.6
-163.088961 70.219044 -25.6
-163.566921 70.149956 -25.6
-164.461132 69.864743 -31.1
-164.458193 69.894022 -31.1
-164.456778 69.953513 -32.9
-164.331416 70.218794 -38.4
-164.376342 70.192061 -38.4
-165.520822 70.35536 -43.9
-164.806464 70.503808 -43.9
-165.565005 70.220568 -43.9
-164.649331 70.140393 -38.4
-164.280608 69.888695 -29.3
-165.373249 70.246289 -43.9
-165.371401 70.216594 -42.1
-165.516111 70.200919 -43.9
-164.852507 70.356726 -42.1
-164.860541 70.245502 -42.1
-164.727952 70.216381 -40.2
-164.304898 70.4786 -43.9
-164.259244 70.532495 -43.9
-164.078702 70.396256 -40.2
-165.137533 70.4752 -43.9
-165.027927 70.460525 -43.9
-165.157551 70.445156 -43.9
-165.626216 69.970917 -40.2
-163.568141 70.278 -29.3
-164.336009 70.314736 -40.2
-164.36349 70.414453 -42.1
-163.88358 69.920863 -27.4
-163.834491 69.958076 -27.4
-165.846134 70.032531 -42.1
-163.257315 70.479213 -34.7
-163.74631 69.842468 -23.8
-164.285748 70.36614 -40.2
-165.056973 70.310759 -42.1
-165.079343 70.267265 -42.1
-165.768032 69.956472 -42.1
-165.771321 69.990409 -42.1
-165.888588 70.152426 -43.9
-165.802445 70.14604 -43.9
-164.286815 70.374622 -40.2
-165.388191 70.155996 -42.1
-164.918136 70.012288 -38.4
-164.903643 70.070265 -38.4
-165.440432 70.141778 -40.2
-163.285564 70.329169 -31.1
-163.308336 70.306001 -31.1
-163.304069 70.247082 -29.3
-163.090176 70.174797 -25.6
-163.176834 70.133271 -23.8
-163.218427 70.168778 -25.6
-163.261528 70.112753 -25.6
-163.216187 70.119195 -23.8
-163.316432 70.413422 -32.9
-164.417995 70.367281 -42.1
-164.423695 70.420334 -42.1
-164.615258 70.370781 -42.1
-164.646961 70.385726 -42.1
-163.800398 69.988086 -27.4
-162.533668 70.458504 -29.3
-163.615047 70.133574 -25.6
-163.568882 70.02042 -27.4
-162.513875 70.240395 -17.0
-163.353283 70.230618 -29.3
-163.435084 70.151275 -29.3
-163.351451 70.034366 -23.8
-165.804851 70.267247 -43.9
-165.103456 70.06725 -40.2
-165.058051 70.039932 -40.2
-165.142871 70.001312 -38.4
-165.008205 70.202325 -41.5
-164.889487 70.227007 -40.2
-165.013387 70.278506 -42.1
-164.973152 70.372345 -43.9
-162.661546 70.440623 -31.1
-164.791955 70.171439 -40.2
-164.738102 70.114978 -38.4
-164.565306 70.202786 -38.4
-165.996054 69.998287 -42.1
-165.185008 69.931113 -38.4
-163.341762 70.366626 -31.1
-163.33842 70.388779 -31.1
-163.448952 70.413471 -32.9
-165.43782 70.089523 -40.2
-165.574782 69.976818 -40.2
-165.374648 69.868525 -38.4
-165.426004 69.883073 -38.4
-165.470105 69.870383 -38.4
-165.523003 69.852796 -38.4
-164.153716 70.515353 -43.9
-163.683049 70.412388 -34.7
-163.21568 70.068664 -21.9
-163.131441 70.089142 -20.1
-164.468302 70.303203 -40.2
-164.926821 69.981474 -36.6
-162.954716 70.519204 -36.6
-162.831337 70.517712 -36.6
-162.729844 70.517229 -34.7
-164.682907 69.948955 -32.9
-164.837195 69.994353 -36.6
-163.056508 69.998348 -18.5
-164.644355 70.273635 -40.2
-164.6518 70.462952 -45.7
-164.508226 70.253409 -40.2
-163.973552 70.023162 -31.1
-164.15223 69.962302 -31.1
-163.78752 70.315423 -34.7
-165.841907 70.46544 -43.9
-164.190051 69.990767 -31.1
-165.37894 69.916746 -38.4
-165.179222 70.385468 -43.9
-165.517436 70.107887 -42.1
-165.660421 70.124315 -43.9
-163.70046 70.06926 -25.6
-164.519664 70.514454 -45.7
-165.290691 70.430212 -42.1
-165.279619 70.520243 -42.1
-165.145754 69.918919 -38.4
-165.592434 70.35566 -43.9
-165.716354 69.839091 -38.4
-165.888781 70.297659 -43.9
-165.896589 69.853776 -42.1
-165.847566 69.856358 -40.2
-163.563849 70.498175 -36.6
-163.77734 70.512992 -40.2
-163.740219 70.480468 -38.4
-164.602623 70.065712 -36.6
-165.339543 70.489503 -42.1
-165.414161 70.402272 -43.9
-165.355477 70.341674 -43.9
-164.880501 69.846767 -36.6
-163.917247 70.539825 -42.1
-164.152607 70.235581 -36.6
-163.003511 70.353327 -29.3
-163.081618 70.323274 -29.3
-163.130729 70.256654 -25.6
-163.089397 70.268122 -25.6
-163.003762 70.219105 -25.6
-164.545343 69.881483 -32.9
-164.831906 69.847539 -34.7
-164.881632 69.864385 -34.7
-164.50378 70.042973 -36.6
-164.496048 69.879012 -31.1
-164.458178 69.967356 -34.7
-164.501473 69.976338 -34.7
-165.328575 70.294014 -43.9
-165.402825 70.294104 -43.9
-165.414831 70.278588 -42.1
-164.427083 70.203957 -38.4
-164.42474 70.196081 -38.4
-164.424889 70.187116 -38.4
-164.76871 70.460379 -43.9
-164.695862 70.4304 -43.9
-165.610902 70.273773 -43.9
-165.564315 70.236363 -43.9
-164.600032 70.140198 -38.4
-164.278035 69.964599 -29.3
-164.195377 69.881294 -29.3
-165.470196 70.203282 -43.9
-165.757639 70.186433 -43.9
-164.695608 70.32589 -42.1
-164.809165 70.296569 -42.1
-163.305979 70.289389 -31.1
-163.351571 70.255988 -29.3
-165.762733 70.212129 -43.9
-164.105784 70.261739 -36.6
-164.102795 69.879786 -29.3
-164.146973 69.893984 -29.3
-164.105321 69.92333 -29.3
-164.333583 70.47872 -43.9
-163.394541 70.296377 -31.1
-163.434351 70.273331 -29.3
-164.107588 70.304701 -36.6
-164.10871 70.380855 -40.2
-165.102659 70.459895 -43.9
-163.61431 70.270135 -31.1
-163.654836 70.304198 -32.9
-164.237809 70.328867 -38.4
-164.285121 70.34907 -40.2
-163.973325 69.954964 -29.3
-163.802205 69.97153 -27.4
-166.01721 70.051815 -43.9
-165.674668 70.034797 -42.1
-165.03911 70.231732 -42.1
-165.078717 70.221864 -42.1
-165.152816 70.125344 -40.2
-164.880333 70.012544 -36.6
-164.972692 70.049006 -40.2
-164.882858 70.07061 -38.4
-164.972487 70.148708 -40.2
-165.329493 69.923734 -38.4
-165.761723 70.254263 -43.9
-163.213006 70.402682 -31.1
-164.417822 70.384409 -42.1
-164.44332 70.415566 -42.1
-164.419527 70.393232 -42.1
-163.838452 70.001398 -27.4
-162.289491 70.473399 -31.1
-162.261322 70.45828 -27.4
-162.402802 70.440504 -27.4
-163.566411 70.038267 -27.4
-163.567601 70.046607 -25.6
-163.61577 70.056706 -27.4
-163.305501 70.213818 -29.3
-163.882444 70.016141 -29.3
-163.88325 70.025052 -29.3
-163.882767 70.04189 -29.3
-163.973453 70.082378 -31.1
-164.105757 70.092262 -32.9
-165.017122 70.030962 -38.4
-164.986384 70.186541 -40.2
-164.923562 70.310335 -42.1
-164.908921 70.327756 -42.1
-162.688328 70.441212 -31.1
-162.794038 70.442677 -31.1
-165.690005 70.315178 -43.9
-165.761553 70.344623 -42.1
-164.835859 70.146845 -40.2
-164.619819 70.187468 -38.4
-163.556436 70.2463 -27.4
-163.656222 70.242699 -31.1
-163.568028 70.21811 -27.4
-165.897619 69.978166 -42.1
-165.230799 69.893452 -38.4
-165.42239 70.064815 -40.2
-165.43435 70.06476 -40.2
-165.527989 69.976042 -38.4
-165.525944 70.025773 -40.2
-165.470193 69.853781 -38.4
-164.154677 70.444273 -42.1
-164.104918 70.482445 -42.1
-163.926778 70.452424 -40.2
-163.971924 70.465997 -42.1
-163.703402 70.424533 -36.6
-163.711531 70.412128 -34.7
-163.345365 70.069858 -25.6
-163.259452 70.059977 -23.8
-163.133452 70.08162 -20.1
-163.051723 70.040444 -17.9
-164.534995 70.340663 -42.1
-162.253132 70.509437 -31.1
-164.734331 69.976542 -36.6
-164.684365 69.988318 -36.6
-164.837421 70.003496 -36.6
-165.66267 70.473163 -42.1
-164.646481 70.230498 -40.2
-164.621355 70.431651 -43.9
-164.504467 70.247859 -40.2
-162.53563 70.34877 -23.8
-162.688126 70.332072 -25.6
-162.403752 70.333159 -19.9
-162.440781 70.312126 -19.2
-162.87649 70.310986 -27.4
-162.874646 70.294437 -27.4
-165.875101 70.521542 -43.9
-165.845869 70.515119 -43.9
-165.803701 70.465194 -43.9
-165.883892 70.418501 -43.9
-163.78664 70.253471 -32.9
-163.308458 70.009977 -21.9
-164.239532 70.000992 -31.1
-165.281517 70.003094 -38.4
-164.929447 70.518959 -43.9
-162.558428 70.412792 -27.4
-162.794852 70.412477 -31.1
-165.491141 70.170705 -42.1
-164.429666 70.554556 -45.7
-165.310844 70.44464 -43.9
-165.235763 69.831487 -36.6
-165.892612 69.918847 -42.1
-165.941268 69.909026 -42.1
-165.276617 70.194979 -42.1
-165.276761 70.228472 -42.1
-165.182132 70.257439 -42.1
-165.27699 70.294257 -43.9
-165.717208 69.895776 -40.2
-164.242506 70.424589 -42.1
-163.927925 70.172989 -32.9
-165.898718 70.247263 -43.9
-165.801009 70.18111 -43.9
-163.463094 70.50248 -36.6
-163.704608 70.491695 -38.4
-163.788733 70.47354 -38.4
-164.238922 70.235883 -38.4
-164.273932 70.224916 -36.6
-165.094324 69.891793 -36.6
-164.326913 69.930869 -29.3
-164.652798 70.071454 -38.4
-163.003371 70.415152 -32.9
-163.003888 70.388664 -31.1
-165.331579 70.357217 -43.9
-165.326118 70.327433 -43.9
-164.977636 69.831454 -36.6
-163.838792 70.514265 -42.1
-164.152403 70.203372 -36.6
-164.062312 70.212201 -34.7
-162.995959 70.236322 -27.4
-163.052994 70.2474 -25.6
-163.17131 70.202917 -25.6
-165.518349 70.534925 -42.1
-163.654894 70.14018 -25.6
-164.545986 69.962826 -34.7
-164.545252 69.952813 -34.7
-164.630126 69.899321 -34.7
-164.838686 69.882233 -36.6
-164.458882 69.928612 -32.9
-164.500971 69.990502 -34.7
-164.585659 69.992609 -36.6
-165.491241 70.386802 -42.1
-164.574611 70.14053 -38.4
-164.240736 69.966233 -29.3
-164.194201 69.906756 -29.3
-164.154275 69.851088 -29.3
-165.371571 70.232239 -43.9
-164.787651 70.233041 -40.2
-163.394638 70.270262 -31.1
-163.433709 70.255797 -29.3
-165.762727 70.229154 -43.9
-163.879973 70.434913 -38.4
-163.998664 70.413115 -40.2
-163.962908 70.415011 -40.2
-163.169328 70.369896 -31.1
-163.081774 70.382996 -31.1
-163.082542 70.374347 -31.1
-163.004166 70.371182 -31.1
-163.002395 70.345054 -29.3
-163.002005 70.274774 -27.4
-163.02308 70.263517 -27.4
-165.575831 70.416718 -42.1
-165.600412 70.416891 -42.1
-163.702038 70.159523 -29.3
-163.701458 70.15081 -29.3
-164.54597 69.947739 -34.7
-164.630918 69.937154 -34.7
-164.588356 69.896617 -32.9
-164.545478 69.865443 -32.9
-164.019572 70.101728 -31.1
-164.495363 69.911619 -32.9
-165.455704 70.294243 -43.9
-164.462527 70.196769 -38.4
-164.69752 70.502924 -43.9
-163.082382 70.313063 -29.3
-164.664222 70.170377 -38.4
-164.621165 70.15665 -38.4
-164.282334 69.872116 -27.4
-164.23987 69.865774 -29.3
-165.371224 70.22451 -43.9
-165.659642 70.2023 -43.9
-164.740567 70.326933 -42.1
-164.886617 70.275772 -42.1
-165.711943 70.243004 -43.9
-164.058438 70.254229 -36.6
-163.746788 69.955267 -27.4
-164.334168 70.453951 -43.9
-164.062856 70.395921 -38.4
-165.026943 70.445631 -43.9
-165.156603 70.402551 -43.9
-163.612072 70.321682 -32.9
-163.274328 70.517531 -36.6
-164.335953 70.322775 -40.2
-164.237135 70.320813 -38.4
-164.238842 70.337041 -40.2
-164.239991 70.353492 -40.2
-164.334441 70.363853 -42.1
-163.790479 69.966743 -27.4
-163.867418 69.982931 -27.4
-165.933719 70.07205 -43.9
-165.758375 70.060702 -42.1
-164.417805 70.053738 -34.7
-164.462602 70.044636 -36.6
-165.846582 69.965682 -42.1
-165.871386 70.121702 -43.9
-164.880272 70.029236 -36.6
-164.958972 70.131308 -40.2
-163.215738 70.285546 -29.3
-163.216715 70.268531 -29.3
-163.173762 70.141224 -25.6
-163.93133 69.990611 -29.3
-163.565195 70.133332 -27.4
-162.406371 70.348268 -21.9
-164.730477 69.887926 -34.7
-163.393131 70.13192 -27.4
-163.389295 70.021016 -25.6
-164.101502 70.041814 -29.3
-165.017069 70.021775 -38.4
-165.103781 70.076302 -40.2
-165.38828 70.05685 -40.2
-165.011794 70.198558 -41.7
-164.766643 70.17129 -40.2
-164.836125 70.11461 -40.2
-165.803959 70.052473 -42.1
-165.929349 70.001185 -42.1
-165.894166 69.943717 -42.1
-163.004491 70.468195 -34.7
-165.52073 69.833805 -38.4
-164.155306 70.429609 -42.1
-165.687804 70.430956 -42.1
-163.745514 70.421461 -34.7
-163.745713 70.396146 -34.7
-163.259043 70.077791 -23.8
-163.21816 70.044101 -21.9
-163.090157 70.091816 -20.1
-163.141451 70.011324 -18.3
-163.88471 70.376308 -36.6
-163.97135 70.508548 -42.1
-164.836679 69.968173 -36.6
-163.040451 70.512909 -34.7
-165.802751 70.447996 -43.9
-165.691094 70.504472 -43.9
-164.647233 70.238365 -40.2
-164.700532 70.341005 -42.1
-164.468921 70.436147 -43.9
-164.330129 70.285666 -40.2
-164.419895 70.236367 -38.4
-164.075233 69.996274 -29.3
-164.107336 69.940343 -29.3
-164.835836 70.030015 -36.6
-163.700995 70.31449 -32.9
-165.883906 70.427135 -43.9
-163.839555 70.232774 -32.9
-163.259703 69.995562 -21.9
-164.103146 69.990824 -31.1
-164.239089 70.00881 -31.1
-165.234248 70.008407 -38.4
-165.144861 70.098112 -40.2
-165.145125 70.090005 -40.2
-165.252247 70.125322 -40.2
-163.654466 70.035093 -27.4
-164.65043 70.52382 -43.9
-165.202385 70.430883 -43.9
-165.203566 70.459835 -43.9
-165.942371 69.857143 -42.1
-165.579928 70.294671 -43.9
-165.574613 70.278843 -43.9
-165.299131 70.246333 -42.1
-165.276196 70.269959 -43.9
-165.17871 70.275814 -42.1
-165.310622 70.356828 -43.9
-165.716785 69.872672 -40.2
-163.970294 70.244016 -34.7
-165.804205 70.302833 -43.9
-165.844458 70.256132 -43.9
-163.399897 70.516887 -38.4
-163.51742 70.497639 -38.4
-165.093924 69.857244 -36.6
-165.059008 69.918442 -38.4
-164.285502 70.13479 -36.6
-164.236634 70.11619 -34.7
-164.197382 70.154707 -34.7
-164.366711 69.938595 -31.1
-164.409646 69.96244 -32.9
-165.413679 70.535309 -42.1
-164.020453 70.268111 -36.6
-164.062467 69.917132 -29.3
-163.569723 70.261138 -29.3
-165.077074 70.519892 -42.1
-165.129432 70.373125 -43.9
-165.69903 69.966632 -40.2
-163.613624 70.262784 -31.1
-163.565245 70.382181 -34.7
-163.606089 70.441645 -36.6
-163.606876 70.43326 -36.6
-163.564682 70.399168 -34.7
-163.972805 69.870445 -27.4
-163.927879 69.956233 -29.3
-165.975718 70.073806 -43.9
-165.89183 70.083553 -42.1
-163.331035 70.50402 -36.6
-164.324459 70.089517 -34.7
-164.213507 70.369304 -40.2
-165.054564 70.245888 -42.1
-165.803989 70.000784 -42.1
-165.848103 70.107266 -43.2
-164.923517 70.020557 -38.4
-164.880289 70.021115 -36.6
-165.760454 70.262487 -43.9
-163.304032 70.229898 -29.3
-163.016876 70.123879 -20.1
-163.138356 70.031593 -19.4
