-70.512899 42.951402 -78.9
-70.514913 42.951521 -65.8
-70.517885 42.952221 -86.9
-70.520974 42.951893 -82.9
-70.520371 42.952746 -84.4
-70.522747 42.953374 -83.2
-70.525108 42.953974 -81.4
-70.527108 42.953763 -77.4
-70.527205 42.954479 -81.7
-70.529380 42.955124 -81.7
-70.530527 42.955896 -84.1
-70.526527 42.956629 -80.2
-70.526230 42.956077 -83.5
-70.523455 42.955782 -82.0
-70.520705 42.955099 -81.7
-70.519807 42.953960 -83.8
-70.518468 42.954557 -85.3
-70.515707 42.953754 -79.2
-70.514460 42.953385 -69.5
-70.513096 42.953018 -83.2
-70.511335 42.953052 -87.8
-70.509935 42.952410 -86.3
-70.507138 42.951735 -84.7
-70.504615 42.951018 -86.9
-70.502140 42.950446 -87.5
-70.499379 42.949682 -89.9
-70.496968 42.948688 -94.5
-70.494221 42.947710 -98.1
-70.491774 42.946743 -96.3
-70.489024 42.945629 -94.5
-70.486588 42.944591 -96.9
-70.493235 42.963254 -78.0
-70.493949 42.963788 -73.2
-70.495585 42.963699 -82.6
-70.495346 42.964404 -77.4
-70.494882 42.965029 -80.8
-70.496671 42.965113 -88.7
-70.497160 42.964535 -73.2
-70.498696 42.964921 -90.2
-70.500543 42.965474 -86.9
-70.503254 42.966296 -89.0
-70.506980 42.967096 -72.2
-70.510077 42.967991 -89.0
-70.508289 42.969054 -86.0
-70.506477 42.968621 -86.9
-70.504577 42.968235 -84.1
-70.503890 42.967610 -81.7
-70.502140 42.967599 -89.3
-70.501115 42.968196 -87.5
-70.496926 42.968907 -88.7
-70.499704 42.967102 -89.0
-70.497318 42.966585 -89.6
-70.495668 42.966152 -89.6
-70.494107 42.966149 -88.7
-70.493371 42.965432 -86.3
-70.491935 42.965138 -81.7
-70.491296 42.964696 -89.6
-70.499093 42.966052 -88.7
-70.537604 42.927532 -83.5
-70.535543 42.927127 -82.6
-70.533204 42.927363 -72.5
-70.530604 42.927507 -82.6
-70.527879 42.927838 -84.1
-70.524843 42.927871 -85.3
-70.521743 42.927841 -86.0
-70.519071 42.927729 -87.2
-70.517613 42.933002 -87.2
-70.514251 42.932191 -90.8
-70.516357 42.927810 -89.0
-70.513857 42.927835 -89.9
-70.510985 42.927752 -92.4
-70.508271 42.927693 -93.3
-70.505696 42.927727 -95.1
-70.503124 42.927699 -98.8
-70.500349 42.927668 -101.5
-70.497434 42.927666 -104.9
-70.495248 42.927682 -100.3
-70.492648 42.927571 -90.8
-70.490225 42.927460 -85.0
-70.487450 42.927410 -78.0
-70.484762 42.927538 -84.4
-70.482075 42.927463 -82.6
-70.479989 42.927432 -78.0
-70.477389 42.927349 -71.9
-70.474714 42.927263 -68.0
-70.472039 42.927196 -66.1
-70.469553 42.927261 -75.3
-70.467117 42.927230 -82.3
-70.469687 42.930677 -74.4
-70.470848 42.930266 -75.3
-70.472509 42.930807 -68.0
-70.474948 42.930929 -73.5
-70.476434 42.931510 -77.7
-70.477834 42.930968 -79.9
-70.479509 42.930952 -82.6
-70.481359 42.931007 -91.4
-70.484595 42.930982 -96.0
-70.488031 42.930966 -100.0
-70.491281 42.930952 -103.6
-70.493356 42.930916 -97.8
-70.495042 42.930852 -102.7
-70.497932 42.930699 -99.7
-70.500882 42.930407 -97.8
-70.503832 42.930088 -96.0
-70.505232 42.929913 -96.3
-70.507032 42.929429 -93.3
-70.509757 42.929118 -91.1
-70.503071 42.929546 -98.8
-70.501046 42.929268 -100.9
-70.495309 42.928677 -107.0
-70.492884 42.928352 -104.2
-70.491198 42.928802 -101.5
-70.489398 42.929141 -98.8
-70.487598 42.929468 -96.3
-70.486123 42.929696 -96.3
-70.483998 42.929704 -93.3
-70.481759 42.929629 -88.7
-70.479248 42.929610 -83.2
-70.476998 42.929921 -75.9
-70.474073 42.929643 -68.9
-70.472325 42.929274 -70.4
-70.470625 42.928804 -74.1
-70.468164 42.928424 -78.9
-70.465953 42.927900 -82.3
-70.463703 42.927458 -78.9
-70.461567 42.927108 -70.7
-70.459306 42.926783 -73.2
-70.457420 42.926533 -76.2
-70.454956 42.926164 -78.6
-70.452734 42.925925 -78.0
-70.450770 42.925592 -75.0
-70.448497 42.925369 -70.4
-70.446058 42.925469 -71.6
-70.444547 42.925330 -70.4
-70.441372 42.925244 -78.6
-70.439147 42.925169 -77.7
-70.436961 42.924919 -76.8
-70.435377 42.922264 -77.7
-70.433402 42.922078 -78.0
-70.431005 42.921653 -76.2
-70.428755 42.921294 -70.4
-70.425894 42.921153 -67.7
-70.423208 42.920875 -67.7
-70.420358 42.920836 -68.3
-70.417694 42.921111 -70.4
-70.434549 42.924705 -74.4
-70.432388 42.924483 -71.0
-70.430024 42.924328 -62.5
-70.427613 42.924039 -68.6
-70.425488 42.923928 -67.7
-70.424016 42.923761 -66.8
-70.421477 42.923467 -70.7
-70.419627 42.923392 -72.2
-70.417366 42.923250 -76.2
-70.415166 42.923175 -78.6
-70.413080 42.923119 -80.8
-70.411194 42.922989 -82.9
-70.409230 42.922878 -82.9
-70.407080 42.922930 -81.7
-70.404908 42.922764 -76.8
-70.402758 42.922705 -75.0
-70.400807 42.922797 -79.6
-70.416252 42.924592 -76.8
-70.418913 42.924778 -75.0
-70.421263 42.925000 -72.2
-70.423399 42.925222 -70.7
-70.425288 42.925536 -68.9
-70.427474 42.925814 -68.3
-70.429947 42.926064 -66.8
-70.432111 42.926322 -66.1
-70.433861 42.925808 -70.7
-70.434333 42.926636 -66.4
-70.436186 42.925433 -75.0
-70.436547 42.926942 -67.7
-70.438994 42.927236 -72.2
-70.441280 42.927589 -71.0
-70.443430 42.927883 -69.8
-70.444955 42.928803 -70.4
-70.447005 42.927978 -71.6
-70.447992 42.928897 -70.4
-70.450428 42.929194 -73.2
-70.452764 42.929508 -78.0
-70.454464 42.929628 -78.9
-70.457214 42.929897 -76.8
-70.456675 42.930778 -77.7
-70.454312 42.931244 -77.1
-70.451639 42.930950 -71.9
-70.449489 42.930680 -62.8
-70.449000 42.931167 -61.9
-70.448053 42.930458 -64.3
-70.446453 42.930303 -63.1
-70.443841 42.929850 -62.5
-70.441491 42.929480 -67.4
-70.438680 42.928944 -68.0
-70.436169 42.928586 -63.1
-70.433594 42.928217 -63.7
-70.430833 42.927819 -61.6
-70.429783 42.926980 -65.8
-70.428797 42.927542 -62.5
-70.427383 42.927622 -65.5
-70.425897 42.927292 -61.3
-70.423672 42.926986 -64.3
-70.421261 42.926700 -69.5
-70.418549 42.926505 -73.5
-70.399579 42.924919 -78.9
-70.402241 42.925289 -77.7
-70.404777 42.925722 -78.0
-70.407238 42.926017 -78.6
-70.409788 42.926333 -83.2
-70.411174 42.926553 -84.4
-70.412624 42.926811 -81.7
-70.415186 42.927192 -79.9
-70.418236 42.927514 -69.2
-70.420811 42.927894 -64.0
-70.423447 42.928336 -60.0
-70.425772 42.928044 -64.9
-70.425844 42.928742 -58.8
-70.427244 42.928872 -57.9
-70.428819 42.929039 -59.1
-70.431219 42.929464 -57.6
-70.434266 42.929825 -62.2
-70.437191 42.930167 -68.0
-70.439802 42.930619 -69.8
-70.442327 42.930961 -62.5
-70.444238 42.930650 -63.7
-70.446100 42.931430 -57.0
-70.447612 42.931680 -61.3
-70.454795 42.934047 -81.1
-70.453184 42.933486 -71.3
-70.451459 42.933200 -65.5
-70.449398 42.933050 -65.2
-70.448298 42.933667 -66.1
-70.447248 42.932903 -62.2
-70.444837 42.932725 -60.4
-70.443123 42.934608 -64.3
-70.443198 42.933486 -57.9
-70.443137 42.932597 -59.1
-70.440324 42.932511 -66.1
-70.438074 42.932353 -73.5
-70.431524 42.932772 -61.3
-70.429252 42.931630 -60.4
-70.428391 42.930978 -61.3
-70.426991 42.930342 -59.4
-70.424980 42.929753 -56.4
-70.422944 42.929364 -54.6
-70.421758 42.929539 -55.2
-70.422319 42.928942 -61.6
-70.421083 42.928867 -57.6
-70.419672 42.928867 -61.9
-70.416586 42.928405 -75.0
-70.414097 42.928144 -81.7
-70.411786 42.927867 -87.5
-70.409274 42.927672 -90.8
-70.406774 42.927461 -90.2
-70.404688 42.927211 -90.5
-70.402999 42.927842 -108.8
-70.380548 42.931794 -124.4
-70.377410 42.931911 -126.8
-70.374010 42.931944 -126.8
-70.370612 42.931969 -130.8
-70.367098 42.931914 -132.0
-70.413813 42.934125 -102.7
-70.417149 42.934983 -78.6
-70.419436 42.935472 -74.1
-70.421772 42.936180 -66.1
-70.423933 42.936761 -69.2
-70.427683 42.937875 -77.7
-70.430891 42.938725 -84.7
-70.433841 42.939508 -93.3
-70.436014 42.940089 -97.2
-70.436500 42.941364 -96.9
-70.436325 42.942585 -102.7
-70.436223 42.943660 -107.9
-70.440798 42.942249 -97.8
-70.440950 42.941313 -92.4
-70.439250 42.940844 -95.1
-70.437628 42.940208 -91.7
-70.436103 42.939628 -87.2
-70.434130 42.938928 -88.7
-70.434944 42.937975 -89.0
-70.432169 42.938275 -81.4
-70.431133 42.937439 -77.1
-70.428147 42.936608 -74.1
-70.426186 42.936000 -70.7
-70.424822 42.935403 -64.3
-70.423474 42.935117 -64.0
-70.422061 42.935089 -64.3
-70.421874 42.934453 -66.4
-70.420427 42.933939 -64.3
-70.419888 42.934469 -64.3
-70.418727 42.934167 -66.8
-70.417713 42.933697 -71.0
-70.417716 42.933175 -70.4
-70.416391 42.933467 -73.2
-70.417766 42.932658 -65.8
-70.416002 42.932675 -75.3
-70.414116 42.932189 -88.1
-70.413641 42.932850 -99.4
-70.412191 42.932472 -106.1
-70.410705 42.932369 -109.7
-70.415255 42.931178 -77.7
-70.417855 42.931778 -64.9
-70.419216 42.932028 -62.8
-70.420527 42.932311 -63.4
-70.421816 42.932505 -61.3
-70.424277 42.933078 -64.0
-70.425413 42.934189 -64.0
-70.427088 42.933769 -62.5
-70.427163 42.933272 -61.3
-70.428624 42.933678 -63.1
-70.430861 42.934186 -64.0
-70.431547 42.934708 -64.6
-70.435208 42.935989 -83.2
-70.433458 42.936208 -78.9
-70.437194 42.936808 -87.8
-70.447445 42.936319 -85.3
-70.442806 42.936353 -84.1
-70.439445 42.935975 -83.2
-70.436833 42.935972 -82.6
-70.437836 42.934567 -78.6
-70.436136 42.934650 -77.4
-70.436611 42.934080 -76.8
-70.433386 42.934747 -68.3
-70.433949 42.934114 -68.6
-70.434324 42.933461 -67.7
-70.432011 42.933680 -61.3
-70.430538 42.933386 -59.4
-70.429138 42.933108 -60.4
-70.427402 42.932739 -62.8
-70.426202 42.932380 -60.7
-70.426427 42.931775 -62.2
-70.423766 42.932353 -62.2
-70.423691 42.931764 -61.3
-70.421180 42.931650 -60.0
-70.421816 42.931083 -59.4
-70.420630 42.930769 -57.0
-70.419555 42.930272 -60.4
-70.418430 42.931053 -62.2
-70.415733 42.930628 -67.7
-70.413108 42.930119 -83.5
-70.415594 42.930011 -74.4
-70.415208 42.929011 -75.0
-70.416822 42.928911 -71.3
-70.417458 42.929783 -65.2
-70.418744 42.929492 -63.1
-70.425749 42.935053 -65.8
-70.427399 42.935075 -67.7
-70.429197 42.935130 -67.1
-70.431086 42.935178 -66.1
-70.433097 42.935325 -69.5
-70.435247 42.935308 -71.6
-70.437483 42.935347 -80.5
-70.439548 42.935394 -82.9
-70.441659 42.935480 -81.7
-70.443809 42.935528 -80.5
-70.445784 42.935555 -81.7
-70.447770 42.935622 -85.6
-70.449370 42.935530 -86.9
-70.446939 42.938716 -92.4
-70.444553 42.939293 -91.7
-70.441728 42.939697 -90.8
-70.442017 42.937878 -89.0
-70.442606 42.937328 -87.2
-70.446787 42.940793 -98.1
-70.446087 42.941371 -95.4
-70.448248 42.941685 -99.1
-70.449659 42.942357 -98.1
-70.444045 42.943877 -103.0
-70.445645 42.943685 -99.4
-70.446787 42.942446 -99.4
-70.448784 42.942816 -98.8
-70.450734 42.943066 -97.8
-70.452795 42.943379 -91.7
-70.453070 42.944049 -91.4
-70.454331 42.943629 -91.4
-70.455795 42.943657 -98.5
-70.457306 42.943907 -99.1
-70.459531 42.944074 -98.1
-70.461931 42.944379 -96.6
-70.464353 42.944693 -93.6
-70.466637 42.947257 -93.3
-70.466564 42.946724 -93.9
-70.466489 42.946063 -93.6
-70.465864 42.945254 -96.0
-70.464178 42.945307 -96.3
-70.464089 42.945888 -90.8
-70.463050 42.946454 -91.4
-70.463739 42.946963 -81.7
-70.461714 42.946235 -89.0
-70.462253 42.945749 -94.8
-70.460717 42.945543 -95.7
-70.459367 42.945579 -91.7
-70.457842 42.945266 -95.1
-70.456592 42.944954 -92.4
-70.455206 42.945099 -93.9
-70.454642 42.944538 -95.1
-70.453531 42.945438 -87.2
-70.452142 42.944868 -90.5
-70.449756 42.944710 -98.1
-70.447120 42.944532 -99.7
-70.439909 42.944316 -105.8
-70.438734 42.945160 -113.7
-70.437981 42.945877 -109.4
-70.435956 42.946802 -107.9
-70.433467 42.947746 -110.0
-70.431067 42.948802 -109.1
-70.442345 42.945557 -107.9
-70.446667 42.946396 -107.9
-70.449078 42.946996 -100.9
-70.450242 42.946666 -97.8
-70.451839 42.947477 -93.6
-70.453003 42.947018 -86.0
-70.453103 42.946302 -89.9
-70.455625 42.947324 -84.4
-70.455325 42.948196 -86.3
-70.457375 42.948582 -89.9
-70.458200 42.947518 -83.8
-70.460512 42.947666 -76.8
-70.459087 42.948291 -91.4
-70.460112 42.949366 -98.5
-70.461398 42.949046 -96.3
-70.463387 42.948274 -96.3
-70.467437 42.948288 -96.3
-70.463648 42.949910 -103.9
-70.462995 42.950471 -99.1
-70.465306 42.951143 -100.0
-70.464017 42.953402 -100.6
-70.461892 42.952638 -104.5
-70.460970 42.951304 -103.3
-70.459795 42.952121 -103.3
-70.457759 42.951432 -103.6
-70.455748 42.950916 -101.8
-70.453298 42.950316 -104.2
-70.451537 42.949957 -103.9
-70.448950 42.949604 -104.2
-70.455928 42.962941 -100.0
-70.457642 42.962529 -100.6
-70.459779 42.963157 -98.1
-70.461240 42.965060 -96.9
-70.463751 42.965152 -86.3
-70.465326 42.965585 -85.3
-70.466710 42.966468 -69.8
-70.468021 42.967260 -65.2
-70.470596 42.968007 -73.5
-70.472032 42.968282 -71.3
-70.477418 42.969618 -91.7
-70.479815 42.970079 -91.4
-70.481765 42.970074 -93.9
-70.482665 42.970807 -93.3
-70.484976 42.971463 -95.1
-70.486913 42.971593 -93.0
-70.487349 42.972291 -92.7
-70.486271 42.974274 -96.6
-70.484985 42.973466 -93.6
-70.482599 42.973116 -91.7
-70.481263 42.972727 -91.4
-70.480001 42.972229 -87.2
-70.477826 42.971493 -88.4
-70.473229 42.970204 -68.0
-70.471857 42.969643 -62.8
-70.470793 42.969127 -65.2
-70.468682 42.968446 -61.6
-70.466871 42.967710 -65.5
-70.464485 42.967799 -68.0
-70.464510 42.967054 -68.3
-70.462149 42.966291 -82.9
-70.459951 42.965813 -91.4
-70.458140 42.965121 -96.9
-70.456053 42.964504 -96.9
-70.454403 42.964024 -98.8
-70.448803 42.964149 -97.2
-70.451139 42.964785 -95.1
-70.452950 42.965274 -94.8
-70.454775 42.965524 -96.3
-70.456751 42.966077 -92.0
-70.457613 42.966463 -91.4
-70.459099 42.966921 -88.1
-70.460538 42.966813 -88.7
-70.459910 42.967629 -83.2
-70.461435 42.967677 -72.5
-70.463721 42.968496 -64.3
-70.465721 42.968893 -57.6
-70.467932 42.969557 -60.7
-70.470093 42.970221 -58.2
-70.472265 42.971002 -62.2
-70.476488 42.972413 -76.5
-70.485229 42.977041 -97.2
-70.482357 42.975860 -93.3
-70.480860 42.975152 -91.4
-70.479671 42.975657 -85.0
-70.479596 42.974949 -82.3
-70.478371 42.975279 -70.1
-70.477574 42.974452 -75.0
-70.475563 42.973807 -68.0
-70.470276 42.972388 -56.7
-70.468229 42.971652 -55.5
-70.466854 42.971274 -53.3
-70.465568 42.970768 -54.9
-70.463893 42.970299 -56.1
-70.462593 42.969949 -57.9
-70.460482 42.969257 -66.1
-70.459585 42.968585 -74.4
-70.457760 42.968429 -73.5
-70.455174 42.967866 -84.4
-70.453523 42.968021 -87.2
-70.454250 42.966616 -92.7
-70.452187 42.967110 -90.8
-70.449764 42.966482 -89.9
-70.447089 42.965866 -91.4
-70.445412 42.968602 -93.6
-70.447598 42.969127 -90.8
-70.449520 42.969643 -88.4
-70.451459 42.970113 -77.1
-70.452257 42.970766 -69.5
-70.453121 42.969188 -78.3
-70.453857 42.970649 -70.4
-70.455232 42.971377 -66.8
-70.455893 42.971779 -68.6
-70.457468 42.972249 -61.9
-70.458104 42.971746 -61.6
-70.458507 42.970854 -65.2
-70.459465 42.972829 -55.8
-70.461451 42.973485 -55.8
-70.463079 42.972557 -52.4
-70.463726 42.974102 -59.4
-70.465863 42.974654 -59.4
-70.467635 42.975299 -62.5
-70.469821 42.975816 -59.7
-70.474146 42.977057 -66.8
-70.476107 42.977649 -67.7
-70.477393 42.977860 -62.8
-70.478218 42.978321 -70.7
-70.478643 42.977621 -66.8
-70.480518 42.977882 -72.5
-70.480504 42.978938 -74.7
-70.482426 42.979527 -89.6
-70.484263 42.979952 -97.8
-70.485776 42.980493 -100.9
-70.478988 42.981216 -96.6
-70.477451 42.980579 -88.4
-70.476540 42.980121 -84.4
-70.477540 42.979643 -67.7
-70.478004 42.978946 -66.4
-70.475104 42.979393 -68.3
-70.473204 42.978418 -71.6
-70.469007 42.977074 -64.9
-70.467035 42.976318 -58.8
-70.464510 42.975452 -54.9
-70.462024 42.975027 -61.6
-70.461938 42.974449 -59.4
-70.460363 42.974043 -57.0
-70.458315 42.973391 -59.7
-70.457429 42.972938 -63.4
-70.455979 42.972599 -65.5
-70.454018 42.971971 -69.5
-70.451829 42.972191 -75.3
-70.451882 42.971354 -68.0
-70.449270 42.970774 -83.5
-70.446809 42.970221 -92.0
-70.444423 42.969446 -93.6
-70.445131 42.971304 -94.5
-70.447067 42.972141 -88.4
-70.449118 42.972860 -80.2
-70.451379 42.973182 -80.2
-70.451279 42.973688 -73.5
-70.453090 42.974046 -71.3
-70.455376 42.974849 -70.4
-70.457015 42.974171 -65.8
-70.457638 42.975354 -68.6
-70.459699 42.975863 -64.6
-70.462335 42.976774 -72.5
-70.464857 42.977602 -70.4
-70.466657 42.978338 -74.4
-70.468729 42.979196 -82.3
-70.473390 42.980329 -85.3
-70.475465 42.980899 -92.0
-70.476413 42.981599 -95.4
-70.477738 42.981491 -95.7
-70.480024 42.982199 -99.7
-70.482024 42.982668 -100.0
-70.484485 42.982910 -99.4
-70.488683 42.983318 -96.9
-70.490783 42.983410 -92.4
-70.488783 42.985110 -96.0
-70.483946 42.983957 -98.8
-70.481921 42.983441 -100.0
-70.479474 42.982888 -98.1
-70.477338 42.982399 -97.2
-70.474651 42.981799 -95.7
-70.472426 42.981266 -94.8
-70.467804 42.980296 -90.5
-70.465354 42.979552 -87.2
-70.463343 42.978916 -86.3
-70.461196 42.978235 -83.5
-70.459546 42.978252 -82.9
-70.460071 42.977288 -77.7
-70.458210 42.977652 -77.7
-70.456199 42.977018 -78.6
-70.453738 42.976307 -79.9
-70.451801 42.975654 -82.0
-70.449451 42.975396 -87.8
-70.449326 42.974827 -83.5
-70.450726 42.974404 -84.4
-70.447228 42.974052 -87.2
-70.445378 42.973416 -93.0
-70.443417 42.972607 -96.0
-70.441256 42.972402 -99.7
-70.441156 42.971796 -96.3
-70.439270 42.971132 -97.8
-70.437409 42.970324 -99.7
-70.427300 42.968718 -105.2
-70.421267 42.967702 -107.9
-70.418367 42.967324 -109.7
-70.414856 42.967035 -111.6
-70.411756 42.966766 -110.6
-70.408684 42.966499 -110.6
-70.405258 42.966302 -114.3
-70.401933 42.966135 -117.0
-70.398333 42.966977 -117.3
-70.398722 42.966141 -120.4
-70.395536 42.965946 -119.5
-70.391936 42.965841 -116.1
-70.391038 42.964693 -121.6
-70.388213 42.963882 -109.4
-70.397966 42.969585 -119.8
-70.397069 42.968877 -117.7
-70.396644 42.968179 -116.7
-70.392994 42.967571 -117.3
-70.389672 42.967485 -116.4
-70.390061 42.966816 -118.3
-70.389374 42.965968 -111.6
-70.387897 42.966527 -115.5
-70.386011 42.966507 -106.1
-70.385699 42.965643 -106.1
-70.384449 42.965993 -104.5
-70.383749 42.965036 -107.9
-70.381802 42.964686 -104.5
-70.379491 42.964189 -103.3
-70.377441 42.963728 -103.3
-70.375316 42.963330 -103.6
-70.373430 42.962650 -108.5
-70.371469 42.962005 -114.0
-70.369833 42.961572 -117.3
-70.367608 42.961155 -118.0
-70.365711 42.960642 -119.2
-70.363349 42.960253 -116.4
-70.361487 42.959425 -118.0
-70.359676 42.958733 -118.3
-70.355848 42.960072 -104.9
-70.357710 42.960183 -105.8
-70.359973 42.960508 -108.5
-70.363011 42.960850 -105.8
-70.365297 42.961200 -109.4
-70.367319 42.961928 -108.5
-70.369230 42.962675 -100.6
-70.371505 42.963475 -87.2
-70.373477 42.964194 -90.8
-70.375538 42.964903 -89.9
-70.377424 42.965592 -91.1
-70.379199 42.966044 -93.0
-70.380774 42.966303 -92.7
-70.382249 42.966064 -98.8
-70.382186 42.966727 -97.8
-70.384786 42.967049 -96.9
-70.386733 42.967768 -104.2
-70.388833 42.968321 -111.6
-70.391144 42.968929 -118.0
-70.401353 42.971216 -112.5
-70.399627 42.971066 -116.4
-70.398863 42.971791 -118.0
-70.396127 42.970916 -120.7
-70.394827 42.970354 -124.4
-70.392441 42.969941 -121.6
-70.389880 42.969404 -112.5
-70.387583 42.968796 -103.6
-70.385308 42.968666 -89.6
-70.385658 42.968096 -95.1
-70.384247 42.968152 -84.4
-70.382861 42.967488 -87.8
-70.380474 42.967027 -86.6
-70.378561 42.966714 -82.9
-70.375649 42.966180 -79.2
-70.375313 42.965655 -86.3
-70.372913 42.965755 -75.6
-70.373063 42.965258 -83.5
-70.371502 42.965100 -84.4
-70.370952 42.965808 -76.8
-70.369252 42.965661 -77.7
-70.370577 42.965522 -78.6
-70.369977 42.965000 -80.8
-70.369480 42.964200 -93.6
-70.368666 42.964969 -82.0
-70.367391 42.965400 -85.6
-70.366555 42.964603 -87.2
-70.366666 42.964058 -89.9
-70.364530 42.963783 -91.7
-70.364605 42.964242 -91.7
-70.365041 42.964767 -89.0
-70.365091 42.965253 -93.3
-70.363691 42.965050 -96.9
-70.361794 42.964275 -101.5
-70.362530 42.963872 -95.4
-70.362919 42.963239 -93.6
-70.358843 42.963833 -106.4
-70.358132 42.963097 -105.2
-70.359246 42.961867 -100.3
-70.357610 42.960992 -105.2
-70.356096 42.962728 -109.4
-70.353860 42.962167 -110.6
-70.355918 42.963811 -112.5
-70.357779 42.964439 -108.8
-70.362366 42.965564 -100.0
-70.364616 42.965942 -96.3
-70.367013 42.966439 -91.7
-70.369102 42.966119 -79.2
-70.368849 42.966836 -87.2
-70.371663 42.966628 -75.6
-70.373149 42.966408 -74.7
-70.374961 42.966922 -73.8
-70.371224 42.967664 -87.2
-70.373549 42.967142 -74.4
-70.373424 42.967758 -83.8
-70.377297 42.968019 -88.1
-70.378622 42.968413 -75.6
-70.379647 42.968707 -81.4
-70.376111 42.968542 -78.3
-70.377508 42.968963 -86.3
-70.379022 42.969085 -77.7
-70.380633 42.969491 -83.8
-70.381594 42.969168 -82.0
-70.382708 42.969491 -84.7
-70.382794 42.970254 -91.7
-70.383980 42.969868 -87.2
-70.384169 42.969363 -84.7
-70.385658 42.969274 -87.5
-70.388230 42.970257 -114.6
-70.389855 42.970435 -97.2
-70.389852 42.971407 -104.5
-70.388005 42.970929 -96.3
-70.385891 42.970385 -90.8
-70.386091 42.970946 -91.1
-70.386366 42.971452 -93.3
-70.386577 42.972104 -97.5
-70.396824 42.973499 -120.1
-70.395286 42.973185 -120.7
-70.394638 42.972716 -121.6
-70.392788 42.972549 -118.9
-70.390652 42.972502 -112.5
-70.388427 42.972307 -103.0
-70.386813 42.972702 -98.8
-70.383327 42.971935 -92.0
-70.381466 42.971354 -89.9
-70.379905 42.970941 -84.7
-70.378455 42.970518 -81.1
-70.376883 42.970177 -86.6
-70.375569 42.969799 -87.8
-70.374747 42.969255 -86.6
-70.373286 42.968778 -89.9
-70.368624 42.967728 -88.7
-70.365538 42.967542 -96.3
-70.363413 42.967061 -99.1
-70.361413 42.966480 -103.6
-70.357304 42.965422 -109.4
-70.355268 42.964922 -114.3
-70.353357 42.964453 -116.7
-70.352443 42.965480 -122.5
-70.354154 42.965814 -118.9
-70.356040 42.966211 -116.1
-70.360452 42.967161 -108.5
-70.362788 42.967567 -105.2
-70.365424 42.968083 -98.1
-70.367524 42.968186 -92.7
-70.369547 42.968564 -91.7
-70.368711 42.969242 -102.7
-70.370047 42.969114 -94.5
-70.371711 42.969061 -90.5
-70.371633 42.969650 -92.4
-70.373147 42.969880 -96.9
-70.374208 42.969614 -88.7
-70.374644 42.970432 -91.7
-70.376780 42.970746 -97.2
-70.376805 42.971332 -89.0
-70.379030 42.971885 -83.8
-70.380766 42.972641 -90.8
-70.381088 42.973193 -102.4
-70.383474 42.973627 -96.3
-70.385424 42.974013 -98.1
-70.387424 42.973952 -103.6
-70.389986 42.974366 -114.3
-70.392086 42.974532 -116.1
-70.397236 42.974491 -119.5
-70.398923 42.974243 -118.0
-70.400548 42.974824 -115.2
-70.401120 42.975552 -116.1
-70.404359 42.975002 -113.7
-70.408570 42.975602 -110.6
-70.411967 42.976835 -110.3
-70.419103 42.976410 -107.0
-70.415778 42.977804 -107.6
-70.412728 42.978013 -107.6
-70.407703 42.977732 -111.9
-70.403356 42.977566 -112.2
-70.400031 42.977260 -115.5
-70.410703 42.978793 -109.7
-70.413239 42.978757 -107.6
-70.410989 42.979582 -107.3
-70.417325 42.979477 -107.3
-70.417562 42.980085 -106.4
-70.415725 42.980118 -107.3
-70.413725 42.980071 -107.9
-70.417112 42.980810 -107.6
-70.415737 42.980791 -110.9
-70.413848 42.980641 -108.2
-70.411662 42.980374 -106.7
-70.409687 42.980124 -108.2
-70.398953 42.978857 -115.5
-70.400214 42.980127 -105.2
-70.402150 42.980302 -107.9
-70.402328 42.979457 -114.9
-70.403100 42.979971 -106.4
-70.404750 42.980174 -109.4
-70.406300 42.980599 -110.6
-70.406212 42.981241 -107.6
-70.407514 42.980185 -108.8
-70.408437 42.980574 -109.7
-70.409925 42.981004 -109.7
-70.415784 42.982554 -107.0
-70.420570 42.982741 -107.3
-70.420845 42.981768 -106.1
-70.423656 42.982377 -105.8
-70.425881 42.983288 -105.2
-70.431767 42.983016 -103.3
-70.430153 42.983888 -101.2
-70.433053 42.984743 -101.8
-70.431289 42.984724 -103.9
-70.428703 42.984752 -101.5
-70.426942 42.984546 -105.5
-70.424942 42.984416 -107.0
-70.433739 42.985316 -103.0
-70.426703 42.985088 -106.7
-70.422306 42.984424 -105.5
-70.419856 42.984616 -107.9
-70.420017 42.983788 -106.4
-70.418045 42.983549 -106.4
-70.416759 42.983116 -106.1
-70.415284 42.983179 -106.4
-70.412884 42.982982 -107.3
-70.410948 42.982752 -106.4
-70.409259 42.983099 -107.3
-70.408259 42.982374 -106.7
-70.407773 42.982813 -103.9
-70.406323 42.982741 -105.2
-70.405073 42.982004 -104.2
-70.403123 42.981918 -101.5
-70.403812 42.982435 -105.2
-70.401737 42.982285 -103.0
-70.399312 42.981971 -103.3
-70.397864 42.980913 -107.9
-70.397450 42.981666 -104.5
-70.395139 42.981427 -103.3
-70.392839 42.981193 -105.5
-70.390989 42.980816 -105.5
-70.388277 42.980963 -109.7
-70.386102 42.980674 -115.5
-70.383827 42.980424 -114.3
-70.381516 42.980082 -114.0
-70.379319 42.979668 -115.5
-70.372544 42.980296 -119.8
-70.376766 42.981146 -116.4
-70.379827 42.981507 -116.4
-70.384027 42.982227 -111.6
-70.386277 42.981804 -109.1
-70.388563 42.981760 -106.4
-70.391989 42.982093 -105.5
-70.395062 42.982291 -103.3
-70.394837 42.983007 -103.6
-70.396648 42.983127 -103.6
-70.397823 42.982641 -102.1
-70.400062 42.982807 -99.1
-70.401659 42.983077 -97.8
-70.403273 42.983216 -95.4
-70.405109 42.983307 -102.1
-70.407570 42.983716 -104.5
-70.408670 42.984854 -104.2
-70.410070 42.984177 -105.8
-70.412331 42.984571 -104.9
-70.414281 42.985032 -107.9
-70.415881 42.985199 -104.5
-70.418653 42.985449 -106.1
-70.419678 42.985277 -106.7
-70.421089 42.985654 -103.9
-70.422578 42.986152 -106.7
-70.423964 42.985849 -104.5
-70.425789 42.985904 -102.1
-70.428675 42.986010 -100.6
-70.431064 42.986085 -103.6
-70.433762 42.986216 -99.1
-70.436060 42.988257 -101.8
-70.435099 42.988732 -102.4
-70.432724 42.988438 -98.1
-70.427862 42.986816 -100.3
-70.426087 42.987154 -103.0
-70.425337 42.987852 -105.2
-70.418450 42.986974 -103.9
-70.404020 42.984888 -101.2
-70.403281 42.985632 -100.6
-70.401306 42.985152 -102.1
-70.399409 42.984268 -102.4
-70.399209 42.984782 -103.6
-70.397298 42.984452 -104.5
-70.395870 42.984843 -102.7
-70.395259 42.984154 -106.1
-70.393359 42.984143 -103.9
-70.391787 42.984016 -103.9
-70.392037 42.983399 -104.2
-70.389800 42.983268 -105.8
-70.389687 42.984041 -106.1
-70.387911 42.983699 -108.5
-70.385586 42.983285 -110.9
-70.383674 42.983052 -111.3
-70.382199 42.982610 -112.8
-70.380127 42.982627 -114.0
-70.378813 42.982021 -116.1
-70.377041 42.981735 -116.4
-70.373930 42.981327 -117.0
-70.371852 42.982538 -115.2
-70.372091 42.981610 -117.0
-70.371955 42.980921 -116.1
-70.370119 42.980643 -114.6
-70.367969 42.980285 -113.4
-70.365908 42.979935 -111.6
-70.363933 42.979757 -110.0
-70.361333 42.979277 -110.3
-70.359547 42.979029 -111.9
-70.357697 42.978752 -113.7
-70.358280 42.982685 -116.1
-70.360591 42.982852 -111.3
-70.362977 42.982982 -114.3
-70.365166 42.983324 -112.2
-70.366777 42.983546 -110.9
-70.369677 42.983732 -108.2
-70.371663 42.983760 -108.8
-70.374138 42.983938 -110.0
-70.375674 42.983388 -113.4
-70.376349 42.983946 -112.5
-70.378088 42.983866 -111.6
-70.378661 42.984343 -114.9
-70.380549 42.984004 -111.9
-70.382736 42.983935 -111.6
-70.384824 42.984082 -109.7
-70.386847 42.984296 -108.2
-70.387248 42.984949 -108.2
-70.388762 42.984443 -107.3
-70.391573 42.984768 -106.4
-70.393609 42.985027 -105.8
-70.395734 42.985388 -105.5
-70.398045 42.985516 -103.6
-70.400381 42.985749 -101.2
-70.402692 42.986071 -101.5
-70.404892 42.986138 -100.3
-70.406817 42.986396 -99.1
-70.407928 42.987085 -99.7
-70.409253 42.986866 -101.2
-70.411653 42.987079 -100.9
-70.413128 42.987393 -100.3
-70.408642 42.986316 -100.3
-70.410528 42.986546 -102.7
-70.412528 42.986668 -100.6
-70.414228 42.986835 -103.6
-70.415439 42.987174 -103.3
-70.417075 42.987277 -105.2
-70.418714 42.987766 -107.0
-70.420000 42.987563 -104.9
-70.422125 42.987813 -105.2
-70.424000 42.988082 -104.2
-70.425962 42.988313 -102.7
-70.428112 42.988571 -103.0
-70.430209 42.988896 -101.5
-70.432074 42.989043 -101.2
-70.433646 42.989063 -100.9
-70.427184 42.989041 -99.7
-70.425323 42.989029 -100.3
-70.421898 42.989357 -104.9
-70.420198 42.989621 -100.9
-70.420598 42.988649 -104.2
-70.418287 42.988829 -104.2
-70.417237 42.989529 -100.0
-70.407300 42.988666 -101.2
-70.402928 42.987368 -101.2
-70.398106 42.986582 -103.0
-70.394781 42.986929 -104.2
-70.389520 42.986741 -107.3
-70.388359 42.985832 -108.8
-70.386359 42.986610 -109.1
-70.383708 42.986316 -110.3
-70.384908 42.985432 -110.0
-70.382733 42.985735 -111.9
-70.380733 42.985963 -110.9
-70.377797 42.985749 -106.1
-70.375161 42.985610 -109.7
-70.374911 42.984857 -108.8
-70.372261 42.985416 -110.0
-70.371061 42.984843 -107.3
-70.353341 42.984132 -126.2
-70.355941 42.984271 -125.0
-70.358577 42.984449 -121.9
-70.364199 42.984746 -113.7
-70.370036 42.985393 -108.8
-70.372597 42.985866 -109.7
-70.375683 42.986327 -107.9
-70.378283 42.986752 -108.2
-70.381158 42.986846 -112.8
-70.383969 42.986941 -111.3
-70.386956 42.987163 -109.7
-70.389420 42.987429 -110.3
-70.392156 42.987891 -110.0
-70.394992 42.988188 -106.1
-70.398428 42.988246 -105.2
-70.401153 42.988560 -103.3
-70.402700 42.988854 -102.1
-70.404389 42.988893 -103.0
-70.407050 42.989271 -102.4
-70.409875 42.989596 -103.6
-70.411762 42.989504 -100.3
-70.413073 42.989974 -101.8
-70.415309 42.990224 -102.1
-70.418009 42.990446 -100.3
-70.420123 42.990541 -96.9
-70.421395 42.990679 -97.8
-70.423709 42.990949 -101.8
-70.425045 42.990793 -101.2
-70.426445 42.991032 -100.0
-70.430971 42.990771 -100.0
-70.434957 42.991499 -98.5
-70.438379 42.992541 -96.3
-70.435193 42.992152 -98.8
-70.432693 42.991866 -98.1
-70.431168 42.991652 -100.9
-70.429368 42.991457 -100.0
-70.426881 42.991574 -102.4
-70.423806 42.991574 -103.0
-70.421520 42.991507 -98.5
-70.419909 42.991257 -100.6
-70.418034 42.991238 -97.8
-70.415545 42.991152 -100.9
-70.413059 42.990857 -101.5
-70.410573 42.990432 -103.6
-70.407875 42.989971 -101.5
-70.405387 42.989757 -101.5
-70.402200 42.989543 -101.8
-70.400350 42.989138 -102.7
-70.397639 42.988760 -104.2
-70.393953 42.989188 -107.0
-70.388378 42.988863 -105.5
-70.386656 42.988596 -108.8
-70.377544 42.987421 -106.1
-70.374622 42.986785 -111.6
-70.372183 42.986654 -116.4
-70.370597 42.986185 -115.2
-70.369136 42.986432 -118.3
-70.364149 42.986207 -121.6
-70.358724 42.986066 -126.5
-70.358277 42.985018 -123.4
-70.356213 42.985254 -127.4
-70.356874 42.986249 -126.8
-70.363663 42.985252 -119.8
-70.366049 42.985382 -119.2
-70.357836 42.986974 -125.9
-70.362536 42.987271 -124.1
-70.364861 42.987385 -122.2
-70.369122 42.987882 -121.0
-70.371169 42.988179 -121.0
-70.373269 42.987979 -120.1
-70.372955 42.988593 -118.3
-70.374969 42.988613 -117.3
-70.377094 42.988671 -117.3
-70.379155 42.988874 -116.1
-70.381466 42.989004 -115.5
-70.383503 42.989191 -111.3
-70.385842 42.989349 -111.3
-70.388092 42.989516 -112.8
-70.390214 42.989635 -110.9
-70.392178 42.989813 -109.7
-70.394750 42.990079 -109.1
-70.396864 42.990266 -107.0
-70.399300 42.990460 -106.7
-70.401237 42.990654 -103.9
-70.403862 42.990796 -103.9
-70.406712 42.990704 -104.5
-70.408109 42.991157 -104.9
-70.409909 42.991260 -105.8
-70.410645 42.992021 -105.5
-70.412345 42.991646 -104.9
-70.414345 42.991832 -103.3
-70.415959 42.991852 -103.3
-70.417181 42.992513 -101.5
-70.419045 42.992535 -103.0
-70.421306 42.993096 -102.7
-70.423578 42.993271 -100.9
-70.425642 42.993466 -100.0
-70.428254 42.993891 -99.4
-70.430715 42.994224 -99.7
-70.432926 42.994621 -97.2
-70.435038 42.994843 -96.6
-70.437051 42.995110 -97.2
-70.437360 42.997316 -93.0
-70.438724 42.996821 -92.7
-70.440699 42.996279 -89.9
-70.441471 42.996916 -92.4
-70.442535 42.996402 -89.6
-70.444299 42.995641 -88.1
-70.444871 42.996660 -87.2
-70.445974 42.995891 -86.9
-70.447885 42.995046 -86.9
-70.449560 42.995396 -86.9
-70.451960 42.995407 -89.3
-70.453724 42.994985 -89.6
-70.455224 42.994160 -92.0
-70.456849 42.994666 -91.4
-70.457260 42.994060 -90.8
-70.458874 42.993804 -94.5
-70.462474 42.994002 -95.4
-70.464096 42.994193 -93.3
-70.465835 42.993754 -94.8
-70.468171 42.993904 -95.4
-70.466821 42.994407 -93.6
-70.462946 42.994974 -93.3
-70.456507 42.996027 -90.8
-70.452982 42.996693 -86.9
-70.455932 42.997385 -90.5
-70.452868 42.997688 -85.0
-70.450871 42.997493 -87.2
-70.449493 42.998096 -88.4
-70.448782 42.997407 -87.2
-70.446457 42.998188 -88.4
-70.445307 42.997799 -87.8
-70.443696 42.998110 -88.1
-70.443593 42.998699 -88.7
-70.441982 42.998357 -90.5
-70.440043 42.999110 -92.7
-70.439296 42.998357 -91.7
-70.437757 42.998824 -93.3
-70.436943 42.999585 -94.2
-70.441604 43.000093 -90.2
-70.443229 43.000443 -90.5
-70.444993 42.999527 -88.4
-70.447757 42.998904 -89.0
-70.450818 42.998502 -89.0
-70.453718 42.998357 -81.7
-70.456432 42.997854 -91.4
-70.460118 42.997454 -92.4
-70.462979 42.997263 -92.4
-70.466004 42.996888 -91.4
-70.468507 42.996310 -94.5
-70.461340 42.998704 -89.3
-70.464701 42.999616 -93.9
-70.467424 43.000877 -94.2
-70.468100 43.001585 -93.6
-70.469076 42.998682 -93.3
-70.469864 42.999335 -95.1
-70.496661 42.999446 -88.4
-70.496194 43.001054 -89.9
-70.498133 43.000624 -77.7
-70.501455 43.002188 -86.3
-70.501616 43.002796 -86.9
-70.503702 43.002888 -87.2
-70.504964 43.003754 -86.3
-70.506264 43.003588 -85.3
-70.508000 43.004518 -83.5
-70.509686 43.005226 -83.2
-70.510636 43.006173 -83.8
-70.507700 43.005438 -87.8
-70.503091 43.003835 -85.3
-70.504714 43.004874 -86.9
-70.506350 43.006116 -85.3
-70.508061 43.007137 -86.3
-70.510347 43.007431 -73.2
-70.510144 43.008037 -68.6
-70.511533 43.008498 -69.5
-70.511169 43.009012 -75.0
-70.509869 43.008570 -76.5
-70.506733 43.007492 -87.5
-70.503861 43.006104 -86.9
-70.499352 43.004107 -89.6
-70.493469 43.002193 -89.0
-70.495391 43.002993 -89.6
-70.497077 43.003921 -82.6
-70.498914 43.004741 -89.0
-70.499000 43.005402 -85.3
-70.500864 43.005552 -87.8
-70.501961 43.006113 -85.6
-70.502500 43.006582 -87.2
-70.504086 43.007216 -86.0
-70.506008 43.008173 -85.3
-70.507908 43.009020 -84.4
-70.509630 43.009095 -79.9
-70.511142 43.011317 -82.6
-70.506705 43.010753 -83.5
-70.504844 43.010165 -84.7
-70.505680 43.009623 -83.8
-70.502969 43.009098 -86.0
-70.502808 43.008501 -86.9
-70.501097 43.008132 -87.5
-70.499422 43.007341 -86.0
-70.499000 43.006449 -71.3
-70.497314 43.006468 -74.7
-70.496275 43.005952 -68.6
-70.495639 43.005518 -71.0
-70.493591 43.004627 -89.9
-70.491755 43.003671 -88.7
-70.490705 43.002685 -87.2
-70.488380 43.002924 -90.2
-70.489316 43.003852 -90.5
-70.490741 43.004468 -88.7
-70.492364 43.005232 -88.7
-70.494039 43.006032 -83.2
-70.495536 43.006852 -80.5
-70.496725 43.007477 -69.5
-70.498436 43.007691 -70.4
-70.499083 43.008443 -86.9
-70.500619 43.009199 -86.3
-70.502205 43.009990 -86.6
-70.502069 43.010548 -85.3
-70.504041 43.010817 -85.6
-70.504027 43.011690 -85.6
-70.505752 43.011526 -85.6
-70.507041 43.012051 -82.6
-70.504889 43.012987 -85.0
-70.503127 43.012820 -84.1
-70.503127 43.012278 -84.4
-70.501105 43.011256 -85.0
-70.500030 43.010759 -75.0
-70.499655 43.010392 -81.1
-70.497744 43.009729 -85.6
-70.497658 43.009068 -85.3
-70.496058 43.008938 -80.2
-70.494797 43.008560 -71.3
-70.494186 43.008074 -75.0
-70.493650 43.007410 -85.6
-70.492425 43.007641 -78.0
-70.491400 43.006785 -83.8
-70.489977 43.005874 -87.8
-70.486555 43.004713 -90.8
-70.483980 43.004638 -89.6
-70.482219 43.004343 -91.7
-70.478097 43.002924 -92.7
-70.476658 43.003127 -92.4
-70.475747 43.002379 -94.2
-70.472672 43.003121 -93.6
-70.476133 43.003952 -93.3
-70.478755 43.004138 -93.0
-70.478930 43.004771 -93.3
-70.480641 43.004893 -92.4
-70.481741 43.005610 -90.5
-70.484277 43.005429 -88.7
-70.485139 43.006210 -87.2
-70.486927 43.005907 -90.8
-70.486589 43.006468 -86.9
-70.480952 43.006574 -91.4
-70.483539 43.006704 -87.8
-70.485039 43.006824 -82.3
-70.486889 43.007149 -83.5
-70.488339 43.007288 -75.0
-70.484864 43.007496 -86.9
-70.486250 43.007791 -73.2
-70.488061 43.007846 -78.3
-70.489686 43.007932 -70.4
-70.492297 43.008429 -82.3
-70.496033 43.009957 -85.0
-70.497108 43.010252 -76.5
-70.498719 43.010987 -68.6
-70.503914 43.014484 -82.9
-70.502900 43.013976 -84.7
-70.501789 43.013462 -82.9
-70.500016 43.012542 -82.9
-70.498355 43.011659 -64.9
-70.496644 43.011317 -63.1
-70.496155 43.010765 -75.0
-70.495069 43.010343 -83.8
-70.494183 43.009846 -75.3
-70.493022 43.009368 -77.4
-70.491861 43.008971 -74.1
-70.490561 43.008685 -67.7
-70.488811 43.008638 -86.6
-70.487100 43.008443 -86.0
-70.485661 43.008288 -65.2
-70.483764 43.008093 -85.3
-70.481550 43.007991 -87.8
-70.480552 43.007549 -92.4
-70.478152 43.006260 -93.3
-70.476605 43.005763 -91.4
-70.475680 43.005285 -92.0
-70.482875 43.008541 -83.2
-70.484525 43.008799 -86.6
-70.485172 43.009435 -86.0
-70.487561 43.009446 -85.0
-70.489708 43.009788 -69.5
-70.491222 43.009732 -83.5
-70.492447 43.009827 -78.9
-70.488683 43.010291 -72.5
-70.489683 43.010799 -69.8
-70.492233 43.010332 -78.3
-70.493694 43.010388 -72.2
-70.493019 43.010929 -86.0
-70.494619 43.010846 -85.0
-70.495030 43.011334 -69.5
-70.495116 43.011848 -62.5
-70.496541 43.011867 -64.0
-70.496580 43.012281 -67.4
-70.498091 43.012742 -67.1
-70.498777 43.013348 -83.5
-70.499889 43.013781 -84.1
-70.501775 43.014665 -80.5
-70.502000 43.015473 -78.6
-70.503822 43.015687 -81.4
-70.505773 43.016626 -73.5
-70.506720 43.018987 -71.3
-70.505259 43.017681 -73.5
-70.503734 43.017248 -62.5
-70.503072 43.016826 -75.3
-70.501908 43.016878 -67.1
-70.501672 43.016253 -75.0
-70.499811 43.016059 -83.2
-70.498575 43.015481 -84.1
-70.497539 43.015040 -83.2
-70.496325 43.014753 -83.2
-70.495564 43.014256 -83.2
-70.496464 43.013723 -83.5
-70.495277 43.013078 -69.5
-70.494216 43.012740 -65.8
-70.493664 43.014217 -72.5
-70.493702 43.013676 -68.0
-70.492130 43.012984 -84.1
-70.492055 43.012545 -85.0
-70.490530 43.012331 -86.9
-70.490519 43.011754 -65.8
-70.488708 43.011218 -69.8
-70.487058 43.010254 -82.3
-70.484797 43.010021 -79.9
-70.482186 43.009616 -85.6
-70.479861 43.008907 -78.6
-70.480039 43.008513 -82.0
-70.474639 43.007441 -92.4
-70.479636 43.009541 -84.1
-70.480922 43.010074 -82.6
-70.483797 43.010599 -69.8
-70.484144 43.011088 -72.8
-70.486233 43.011685 -55.8
-70.486655 43.012229 -66.1
-70.487944 43.012157 -89.0
-70.488755 43.013378 -87.8
-70.490316 43.014178 -77.7
-70.490389 43.014701 -67.1
-70.491664 43.014445 -76.2
-70.491975 43.015090 -68.9
-70.493125 43.015687 -72.5
-70.493675 43.016212 -75.0
-70.495036 43.016515 -77.1
-70.495700 43.015276 -79.6
-70.496650 43.015690 -83.2
-70.498647 43.016556 -81.4
-70.497597 43.016967 -83.2
-70.499533 43.017226 -68.9
-70.500883 43.017981 -68.0
-70.503445 43.019123 -83.2
-70.505403 43.020253 -55.2
-70.506478 43.020815 -64.3
-70.507590 43.021503 -78.6
-70.499755 43.020148 -82.3
-70.501081 43.019551 -82.3
-70.498958 43.018751 -82.3
-70.497858 43.018226 -67.1
-70.496897 43.017712 -71.9
-70.493436 43.016726 -78.3
-70.484944 43.011904 -56.1
-70.483533 43.012024 -58.5
-70.482183 43.012004 -64.3
-70.481083 43.011343 -82.6
-70.479772 43.010763 -79.9
-70.479111 43.010285 -77.7
-70.473689 43.009260 -84.7
-70.475375 43.010163 -92.4
-70.478433 43.011002 -74.1
-70.479397 43.011552 -86.0
-70.480583 43.011929 -75.0
-70.482380 43.012446 -57.0
-70.483819 43.012685 -58.8
-70.484855 43.013190 -73.5
-70.486091 43.013790 -88.7
-70.487802 43.014756 -72.5
-70.489214 43.014931 -60.0
-70.489825 43.015776 -73.5
-70.491050 43.016484 -82.3
-70.492347 43.018048 -60.4
-70.493922 43.017653 -86.0
-70.494958 43.018445 -65.2
-70.496319 43.018987 -66.1
-70.496330 43.019567 -69.8
-70.497305 43.020045 -80.5
-70.498355 43.020606 -76.8
-70.499392 43.021140 -78.9
-70.501565 43.022253 -57.0
-70.502526 43.022806 -76.8
-70.503501 43.023265 -82.3
-70.505037 43.023570 -74.7
-70.505423 43.024176 -69.8
-70.501687 43.023659 -84.1
-70.500465 43.023301 -82.3
-70.499440 43.023345 -83.2
-70.499603 43.022676 -70.7
-70.499053 43.022151 -77.4
-70.496616 43.021228 -68.6
-70.495141 43.020706 -69.5
-70.495555 43.020145 -84.1
-70.487014 43.015231 -68.0
-70.486089 43.015773 -76.2
-70.484352 43.014762 -86.9
-70.483341 43.014265 -79.6
-70.481966 43.013962 -75.3
-70.481030 43.013602 -92.4
-70.479194 43.012563 -82.3
-70.478108 43.011946 -85.0
-70.477272 43.011341 -82.3
-70.471972 43.011649 -92.0
-70.473497 43.010924 -93.3
-70.475258 43.011716 -90.5
-70.477058 43.012516 -82.3
-70.477219 43.013452 -80.5
-70.478719 43.013391 -77.7
-70.479205 43.013913 -78.0
-70.480741 43.014245 -89.6
-70.481691 43.014556 -84.1
-70.482241 43.015081 -74.7
-70.483789 43.015248 -89.6
-70.483777 43.015865 -87.2
-70.485300 43.016203 -87.5
-70.486114 43.016601 -75.0
-70.487486 43.016812 -74.4
-70.486011 43.017509 -81.7
-70.488197 43.017651 -86.3
-70.490047 43.018578 -71.3
-70.491447 43.018892 -67.7
-70.491108 43.019506 -59.4
-70.492483 43.019620 -71.3
-70.493069 43.020290 -86.0
-70.494116 43.021006 -71.3
-70.495552 43.021706 -69.8
-70.496202 43.022359 -78.6
-70.497714 43.022509 -83.2
-70.497202 43.022995 -84.1
-70.497940 43.023453 -82.6
-70.501087 43.024420 -79.9
-70.502848 43.025065 -66.4
-70.506559 43.025692 -68.0
-70.504859 43.025673 -79.9
-70.504665 43.030992 -59.4
-70.507065 43.029856 -60.7
-70.506092 43.029303 -71.6
-70.504917 43.028762 -66.8
-70.504156 43.028273 -72.5
-70.502681 43.027620 -73.5
-70.502734 43.026737 -76.8
-70.502848 43.026012 -71.6
-70.501973 43.025534 -75.0
-70.500712 43.025056 -76.8
-70.497676 43.024034 -80.8
-70.494489 43.022917 -76.2
-70.494477 43.022459 -68.0
-70.493491 43.021998 -76.5
-70.492791 43.021420 -75.3
-70.491594 43.020776 -85.6
-70.490169 43.020709 -86.3
-70.489219 43.019956 -85.0
-70.487447 43.019367 -86.3
-70.481689 43.016515 -88.1
-70.480727 43.015926 -74.4
-70.478966 43.014931 -88.7
-70.477041 43.014032 -73.2
-70.470280 43.015063 -89.6
-70.471019 43.014338 -90.5
-70.471094 43.013382 -92.4
-70.474705 43.013891 -86.9
-70.476416 43.014766 -79.6
-70.477741 43.015656 -87.8
-70.479489 43.016615 -89.6
-70.481975 43.017240 -87.8
-70.483161 43.018123 -88.7
-70.484861 43.018767 -87.8
-70.486444 43.019898 -87.8
-70.487944 43.020781 -87.8
-70.489480 43.021637 -73.2
-70.491391 43.022484 -79.6
-70.493189 43.023248 -83.2
-70.494100 43.023701 -81.4
-70.495189 43.024195 -85.0
-70.496425 43.024326 -80.5
-70.496337 43.024923 -76.8
-70.502178 43.030165 -52.7
-70.502178 43.029587 -50.3
-70.502417 43.028934 -65.2
-70.502406 43.028170 -78.0
-70.500009 43.027251 -82.3
-70.498559 43.027076 -81.1
-70.498348 43.026292 -82.3
-70.497723 43.025834 -75.0
-70.496498 43.025456 -82.0
-70.497509 43.027515 -82.3
-70.496048 43.026587 -83.5
-70.495373 43.025795 -73.2
-70.494711 43.025362 -64.9
-70.493036 43.024956 -85.0
-70.493214 43.024203 -79.2
-70.491277 43.023292 -82.6
-70.489902 43.022751 -75.3
-70.489202 43.022326 -69.8
-70.487716 43.021840 -81.7
-70.485980 43.021203 -86.0
-70.484058 43.020312 -86.9
-70.480522 43.018737 -88.1
-70.477964 43.017145 -86.3
-70.476527 43.016703 -88.1
-70.475677 43.016162 -86.0
-70.475239 43.017034 -85.0
-70.473864 43.017345 -80.8
-70.472689 43.017251 -86.3
-70.471314 43.017370 -75.0
-70.469925 43.017745 -89.0
-70.473275 43.017987 -88.1
-70.476061 43.018062 -89.9
-70.477636 43.018267 -90.8
-70.478572 43.019040 -88.7
-70.480583 43.019434 -88.1
-70.481083 43.020115 -88.1
-70.483294 43.020926 -85.3
-70.483180 43.021662 -87.8
-70.485466 43.022123 -82.3
-70.486527 43.022840 -72.2
-70.487739 43.023428 -82.9
-70.488025 43.024309 -82.6
-70.490025 43.024173 -84.1
-70.491750 43.024737 -83.8
-70.495545 43.027826 -78.6
-70.496467 43.029481 -82.0
-70.495056 43.028753 -81.7
-70.493834 43.028090 -80.2
-70.492858 43.027420 -85.6
-70.492233 43.027051 -70.7
-70.491161 43.026765 -78.3
-70.490322 43.026270 -90.2
-70.489325 43.025817 -84.7
-70.488425 43.025459 -85.6
-70.486600 43.024659 -85.3
-70.484652 43.023315 -77.4
-70.482930 43.022376 -88.1
-70.481994 43.021945 -83.8
-70.481330 43.021420 -75.0
-70.479858 43.021198 -88.1
-70.478747 43.020103 -89.6
-70.476897 43.019184 -90.5
-70.475250 43.018640 -90.5
-70.471611 43.019217 -84.4
-70.474011 43.019320 -91.1
-70.476758 43.020517 -88.4
-70.479505 43.021906 -84.1
-70.475883 43.021517 -89.9
-70.479105 43.022751 -87.5
-70.480966 43.023578 -82.6
-70.482414 43.024159 -80.8
-70.483564 43.024740 -89.0
-70.485689 43.025420 -86.3
-70.487997 43.026681 -86.3
-70.489933 43.027951 -84.4
-70.490819 43.029615 -82.3
-70.492595 43.029467 -83.2
-70.494392 43.030123 -81.1
-70.497090 43.031556 -78.9
-70.482661 43.026740 -86.0
-70.407704 43.021879 -106.7
-70.406279 43.021557 -107.9
-70.404768 43.021216 -110.9
-70.402831 43.020774 -107.6
-70.401231 43.020432 -109.1
-70.399584 43.020099 -114.6
-70.397909 43.019757 -116.1
-70.396359 43.019446 -114.0
-70.392362 43.018771 -113.1
-70.393981 43.021474 -109.1
-70.398556 43.022010 -94.5
-70.401245 43.021085 -105.5
-70.401206 43.021866 -107.0
-70.401417 43.022471 -107.9
-70.404354 43.022904 -107.0
-70.406715 43.023046 -105.5
-70.406438 43.024607 -105.8
-70.404665 43.024329 -109.1
-70.403115 43.024027 -102.4
-70.401564 43.023932 -107.3
-70.400200 43.024307 -107.3
-70.399103 43.023718 -108.2
-70.397028 43.023627 -108.5
-70.395653 43.023404 -101.8
-70.393953 43.023293 -104.2
-70.391717 43.023338 -108.8
-70.390514 43.024760 -110.9
-70.390078 43.025293 -110.9
-70.392539 43.025441 -110.6
-70.394600 43.025857 -110.6
-70.396137 43.026566 -107.3
-70.397987 43.026777 -108.2
-70.399012 43.026182 -105.5
-70.399774 43.026899 -107.3
-70.401760 43.026966 -107.3
-70.403574 43.027435 -107.6
-70.405271 43.027932 -107.3
-70.387026 43.097180 -92.7
-70.390713 43.097414 -93.9
-70.392163 43.097505 -92.4
-70.396361 43.098658 -88.4
-70.384588 43.097472 -79.9
-70.383976 43.098005 -76.2
-70.385563 43.098208 -74.4
-70.386649 43.098630 -88.7
-70.388810 43.098733 -89.0
-70.390535 43.098975 -90.5
-70.392974 43.098922 -91.4
-70.393110 43.099508 -89.0
-70.395272 43.099172 -87.8
-70.395861 43.099666 -79.6
-70.396772 43.099264 -80.8
-70.397772 43.099761 -86.3
-70.399233 43.100119 -78.0
-70.401208 43.100525 -81.1
-70.404219 43.101264 -75.3
-70.407205 43.101936 -80.5
-70.404427 43.103680 -70.7
-70.403791 43.103136 -72.2
-70.400430 43.102455 -78.9
-70.398930 43.102280 -73.5
-70.398455 43.101755 -78.3
-70.396944 43.101672 -74.4
-70.395169 43.101322 -78.9
-70.395508 43.100291 -86.0
-70.393147 43.100905 -81.7
-70.391746 43.100675 -78.9
-70.390135 43.100316 -91.4
-70.389621 43.099708 -92.7
-70.388571 43.100166 -85.0
-70.387360 43.099402 -82.3
-70.386124 43.099797 -74.1
-70.384560 43.099227 -73.2
-70.383260 43.099427 -67.7
-70.383060 43.099961 -75.3
-70.382046 43.101355 -79.9
-70.382946 43.100722 -77.7
-70.384021 43.101164 -73.8
-70.385371 43.101258 -76.5
-70.386096 43.101783 -80.8
-70.387407 43.101552 -83.2
-70.388407 43.101950 -79.6
-70.389757 43.102033 -77.1
-70.390982 43.102291 -73.2
-70.389671 43.101169 -78.0
-70.392019 43.101889 -84.1
-70.394619 43.101908 -73.8
-70.394380 43.102497 -77.7
-70.393905 43.103011 -81.1
-70.393741 43.103636 -75.6
-70.395730 43.103361 -75.0
-70.397416 43.104400 -79.2
-70.397491 43.103766 -80.8
-70.397766 43.103077 -84.4
-70.399002 43.103969 -85.0
-70.400027 43.104475 -81.7
-70.403725 43.104983 -74.4
-70.404189 43.104322 -72.8
-70.402386 43.106416 -80.8
-70.399239 43.105872 -80.5
-70.397025 43.105530 -85.6
-70.394877 43.105261 -75.0
-70.393127 43.104875 -80.5
-70.390727 43.104744 -84.1
-70.390941 43.104166 -80.8
-70.391466 43.103247 -71.9
-70.389304 43.102630 -67.4
-70.389118 43.103216 -77.1
-70.387679 43.102977 -76.2
-70.389526 43.104439 -71.6
-70.388240 43.104136 -78.9
-70.386929 43.103933 -74.4
-70.385879 43.103619 -84.7
-70.384879 43.104114 -84.4
-70.383643 43.103369 -84.1
-70.381607 43.103222 -77.7
-70.381093 43.102725 -80.8
-70.381507 43.102155 -80.8
-70.380354 43.104525 -96.9
-70.380279 43.105408 -96.0
-70.380340 43.106225 -95.7
-70.381751 43.106069 -95.7
-70.382513 43.106455 -97.5
-70.383638 43.106144 -93.6
-70.382404 43.105177 -94.5
-70.384640 43.105539 -94.5
-70.386440 43.105522 -93.9
-70.386626 43.104916 -85.0
-70.387851 43.105466 -97.2
-70.385088 43.106797 -96.0
-70.386351 43.106469 -97.5
-70.387051 43.105955 -94.2
-70.388676 43.106166 -95.4
-70.390014 43.106241 -93.6
-70.390750 43.106675 -78.6
-70.391677 43.106105 -77.1
-70.392175 43.106866 -82.6
-70.393661 43.107044 -80.5
-70.393800 43.106180 -81.7
-70.395189 43.106125 -79.2
-70.396614 43.106247 -86.0
-70.397850 43.106450 -73.5
-70.396450 43.106916 -84.4
-70.402733 43.108502 -63.1
-70.400808 43.108189 -81.7
-70.398897 43.108066 -89.9
-70.397361 43.107689 -77.7
-70.395836 43.107494 -87.8
-70.390775 43.107822 -88.7
-70.393497 43.108072 -75.9
-70.395597 43.108247 -91.7
-70.397833 43.108644 -92.4
-70.400569 43.109427 -84.1
-70.404816 43.111911 -86.9
-70.401627 43.113241 -91.4
-70.400827 43.113775 -88.7
-70.399464 43.114030 -90.8
-70.395614 43.114736 -94.2
-70.381126 43.115533 -92.7
-70.383214 43.115314 -91.4
-70.376638 43.115833 -93.9
-70.374340 43.115950 -93.6
-70.372540 43.116058 -96.3
-70.373626 43.117014 -93.6
-70.374638 43.117522 -90.5
-70.375488 43.116933 -84.4
-70.377001 43.116614 -97.2
-70.380738 43.116302 -88.1
-70.382364 43.116314 -90.8
-70.384014 43.116214 -96.0
-70.401172 43.116594 -89.6
-70.397722 43.117097 -92.0
-70.394861 43.116986 -95.1
-70.393372 43.117122 -93.9
-70.383211 43.118264 -93.9
-70.381672 43.118600 -96.3
-70.379971 43.118664 -87.2
-70.378535 43.118939 -96.9
-70.375060 43.119183 -97.8
-70.373696 43.119239 -95.7
-70.371260 43.118355 -96.3
-70.377391 43.132075 -90.8
-70.378691 43.131616 -93.9
