-71.017072 42.343229 -10.1
-71.018158 42.343223 -10.1
-71.017877 42.342890 -10.1
-71.017205 42.343326 -10.1
-71.018413 42.342717 -10.1
-71.016997 42.342729 -10.1
-71.017522 42.343576 -10.1
-71.017941 42.343840 -10.1
-71.018486 42.342562 -10.1
-71.017522 42.342612 -10.1
-71.018305 42.344131 -10.1
-71.017708 42.343684 -11.0
-71.018361 42.342915 -11.0
-71.017441 42.341973 -11.0
-71.017194 42.341979 -11.0
-71.017788 42.341959 -11.0
-71.018583 42.342404 -9.8
-71.016905 42.343106 -9.8
-71.018069 42.342381 -9.8
-71.017136 42.342392 -9.8
-71.016952 42.342912 -9.8
-71.016780 42.342998 -9.8
-71.018561 42.343929 -9.8
-71.016983 42.342284 -9.8
-71.017061 42.342573 -9.8
-71.017983 42.342654 -9.8
-71.016833 42.342565 -9.8
-71.017063 42.342581 -9.8
-71.017716 42.342279 -9.1
-71.017486 42.342270 -9.1
-71.018819 42.344165 -9.1
-71.018666 42.344354 -9.1
-71.018255 42.344298 -9.1
-71.018900 42.343326 -9.1
-71.016750 42.342281 -8.8
-71.018622 42.343590 -8.8
-71.018833 42.343534 -8.8
-71.018455 42.342276 -8.8
-71.018633 42.343787 -8.8
-71.018680 42.342270 -8.8
-71.018697 42.343373 -8.8
-71.018200 42.342262 -9.1
-71.017283 42.342606 -9.4
-71.018908 42.343931 -9.4
-71.016325 42.342648 -9.4
-71.017741 42.342620 -9.4
-71.018063 42.343484 -9.4
-71.018466 42.344245 -9.4
-71.016591 42.342548 -9.4
-71.016355 42.342517 -9.4
-71.016180 42.342309 -9.4
-71.016477 42.342279 -9.4
-71.018738 42.343201 -9.4
-71.018263 42.343065 -9.4
-71.018894 42.342826 -9.4
-71.017794 42.343117 -9.4
-71.016638 42.342887 -9.4
-71.018805 42.343015 -9.4
-71.016163 42.343473 -12.2
-71.016325 42.343562 -12.2
-71.016211 42.344384 -12.5
-71.017658 42.344501 -12.5
-71.016908 42.343981 -12.5
-71.017375 42.344284 -12.5
-71.016483 42.343692 -12.5
-71.017477 42.344031 -11.3
-71.016794 42.341979 -11.6
-71.016455 42.341984 -11.6
-71.016716 42.343856 -12.8
-71.016394 42.344462 -12.8
-71.018397 42.344448 -12.8
-71.017227 42.344192 -12.8
-71.018177 42.344462 -12.8
-71.016527 42.343926 -12.8
-71.017058 42.344081 -12.8
-71.016505 42.342767 -9.3
-71.017344 42.344392 -13.1
-71.017308 42.344529 -13.1
-71.016397 42.344206 -13.1
-71.021427 42.344287 -9.3
-71.019725 42.343387 -9.3
-71.020313 42.343040 -9.3
-71.020477 42.342706 -9.3
-71.021550 42.342454 -9.3
-71.021602 42.342265 -9.3
-71.019355 42.344520 -11.9
-71.021347 42.342956 -9.4
-71.020872 42.342901 -9.4
-71.019800 42.342834 -9.4
-71.020208 42.342754 -9.4
-71.019897 42.343420 -9.4
-71.019113 42.343406 -9.4
-71.019186 42.343231 -9.4
-71.020805 42.343079 -9.4
-71.020050 42.343076 -9.4
-71.019066 42.342815 -9.4
-71.021425 42.342781 -9.4
-71.020400 42.344520 -9.4
-71.019608 42.344456 -9.4
-71.019488 42.342365 -9.4
-71.020436 42.344317 -9.4
-71.019675 42.344287 -9.4
-71.020541 42.342448 -9.4
-71.019438 42.342545 -9.4
-71.020936 42.344179 -9.4
-71.021377 42.344454 -9.4
-71.020347 42.342429 -9.4
-71.019880 42.342242 -9.4
-71.019430 42.344365 -9.4
-71.020850 42.344354 -9.4
-71.019863 42.342442 -9.4
-71.020066 42.343487 -9.4
-71.018969 42.342637 -9.4
-71.019833 42.342609 -9.4
-71.021169 42.343498 -9.4
-71.019658 42.343531 -9.4
-71.019825 42.343562 -9.4
-71.020636 42.343595 -9.4
-71.021666 42.343620 -9.4
-71.020697 42.343434 -9.4
-71.020922 42.342740 -9.4
-71.018988 42.343767 -9.4
-71.021477 42.342606 -9.4
-71.020544 42.343917 -9.4
-71.021050 42.343848 -9.4
-71.020586 42.343770 -9.4
-71.020963 42.342565 -9.4
-71.019902 42.343817 -9.4
-71.020488 42.344109 -9.4
-71.019841 42.343967 -9.4
-71.020988 42.344034 -9.4
-71.020077 42.342248 -9.1
-71.020763 42.343240 -8.8
-71.020316 42.342237 -8.8
-71.021230 42.343312 -9.1
-71.019058 42.343604 -9.1
-71.019280 42.342995 -9.1
-71.019786 42.342959 -9.1
-71.019569 42.342209 -9.1
-71.020180 42.343298 -9.1
-71.019513 42.344215 -9.1
-71.019677 42.343887 -9.1
-71.019591 42.344051 -9.1
-71.019105 42.342265 -9.1
-71.020522 42.342242 -9.1
-71.020994 42.342237 -9.1
-71.020775 42.342229 -9.1
-71.020277 42.342592 -9.8
-71.021488 42.344145 -9.8
-71.020777 42.344540 -9.8
-71.019355 42.342729 -9.8
-71.019786 42.344137 -9.8
-71.021113 42.343690 -9.8
-71.021025 42.342395 -9.8
-71.018994 42.342992 -9.8
-71.020305 42.342948 -9.8
-71.019752 42.343715 -9.8
-71.021619 42.343776 -9.8
-71.019041 42.342454 -9.8
-71.021275 42.342231 -9.8
-71.021288 42.343145 -9.8
-71.019994 42.343662 -9.8
-71.021711 42.343454 -9.8
-71.019747 42.343126 -9.8
-71.021547 42.343945 -10.1
-71.019725 42.343259 -10.1
-71.020088 42.342912 -10.1
-71.019941 42.343237 -10.1
-71.021138 42.342059 -10.7
-71.021986 42.342817 -9.8
-71.022550 42.342167 -9.8
-71.023208 42.342142 -9.8
-71.021808 42.343240 -9.1
-71.022208 42.342167 -9.4
-71.021897 42.342192 -9.4
-71.023675 42.342131 -9.4
-71.022058 42.342640 -9.4
-71.022977 42.342162 -9.4
-71.022163 42.342312 -9.4
-71.023419 42.342148 -9.4
-71.021855 42.343120 -9.4
-71.022772 42.342159 -9.4
-71.021925 42.342967 -9.4
-71.022108 42.342484 -9.3
-71.018188 42.346659 -13.4
-71.016975 42.345448 -13.4
-71.016952 42.344715 -13.4
-71.018202 42.345315 -13.4
-71.018588 42.347115 -11.1
-71.017402 42.346481 -11.1
-71.018902 42.347087 -13.1
-71.018386 42.346831 -13.1
-71.018363 42.346320 -13.1
-71.017494 42.346245 -12.2
-71.017775 42.345720 -12.2
-71.016263 42.346001 -11.6
-71.016750 42.346079 -11.9
-71.017611 42.346065 -11.9
-71.018533 42.344876 -12.2
-71.018100 42.346015 -12.2
-71.018152 42.344834 -12.2
-71.016572 42.346595 -11.9
-71.017397 42.345973 -12.2
-71.017891 42.345490 -12.8
-71.016580 42.344548 -12.8
-71.018655 42.345804 -12.8
-71.016877 42.345742 -12.8
-71.018930 42.345656 -12.8
-71.018750 42.345634 -12.8
-71.018016 42.345231 -12.8
-71.018833 42.345823 -12.8
-71.018400 42.345412 -12.8
-71.017758 42.345379 -12.8
-71.018544 42.345984 -12.8
-71.018172 42.345840 -12.8
-71.018300 42.344629 -12.8
-71.016744 42.344631 -12.8
-71.018419 42.345226 -12.8
-71.017288 42.344865 -12.8
-71.017477 42.344956 -12.8
-71.017944 42.346384 -12.8
-71.017247 42.346284 -12.8
-71.016258 42.344651 -13.1
-71.017275 42.344665 -13.1
-71.018277 42.346479 -12.8
-71.017855 42.346562 -12.8
-71.017908 42.344873 -13.1
-71.018069 42.344634 -12.8
-71.017127 42.344990 -13.1
-71.017655 42.345056 -13.1
-71.017105 42.345129 -13.1
-71.018697 42.346151 -12.8
-71.017816 42.345145 -13.1
-71.017019 42.345298 -13.1
-71.016197 42.344823 -12.8
-71.018580 42.345504 -13.1
-71.016905 42.345592 -13.1
-71.016705 42.346226 -11.3
-71.016252 42.346273 -11.3
-71.016911 42.346317 -11.3
-71.018819 42.347284 -11.3
-71.017758 42.347265 -11.3
-71.017522 42.347315 -11.3
-71.017008 42.346673 -11.3
-71.017294 42.346631 -11.3
-71.016219 42.346673 -11.3
-71.017755 42.346770 -11.3
-71.016516 42.346148 -11.3
-71.017694 42.346934 -11.3
-71.017947 42.347204 -11.3
-71.017750 42.347081 -11.3
-71.017119 42.346470 -11.3
-71.016483 42.346381 -11.3
-71.016741 42.346498 -11.3
-71.017600 42.346656 -11.3
-71.018766 42.345984 -12.5
-71.017350 42.346092 -12.5
-71.018450 42.346156 -12.5
-71.018466 42.345045 -12.5
-71.017916 42.345015 -12.5
-71.018119 42.344998 -12.5
-71.017100 42.344770 -12.5
-71.017686 42.345548 -12.5
-71.018830 42.346217 -12.5
-71.017830 42.344623 -12.5
-71.018027 42.346206 -12.5
-71.018616 42.344684 -12.5
-71.016805 42.345904 -12.5
-71.018211 42.345648 -12.5
-71.017652 42.345898 -12.5
-71.018469 42.346642 -12.5
-71.018522 42.346490 -12.5
-71.017550 42.345745 -12.5
-71.018711 42.345254 -12.5
-71.018836 42.345420 -12.5
-71.018630 42.346340 -12.5
-71.017213 42.346815 -10.7
-71.016686 42.347042 -10.7
-71.016461 42.347098 -10.7
-71.016683 42.347267 -10.7
-71.016955 42.347151 -10.7
-71.016461 42.346765 -11.0
-71.017488 42.346842 -11.0
-71.016247 42.346829 -11.0
-71.016900 42.346815 -11.0
-71.016694 42.346851 -11.0
-71.018038 42.346870 -11.0
-71.016197 42.346976 -11.0
-71.017363 42.347001 -11.0
-71.016886 42.346962 -11.0
-71.016475 42.346931 -11.0
-71.017130 42.346998 -11.0
-71.018002 42.347048 -11.0
-71.018244 42.347201 -11.0
-71.017569 42.347123 -11.0
-71.017263 42.347151 -11.0
-71.018316 42.347001 -10.4
-71.020336 42.344698 -9.4
-71.020702 42.344715 -9.4
-71.021233 42.344826 -9.8
-71.021297 42.344620 -9.8
-71.019005 42.346312 -12.5
-71.021016 42.345331 -12.5
-71.019575 42.345342 -12.5
-71.019108 42.345334 -12.5
-71.019997 42.346431 -12.5
-71.018944 42.345251 -12.5
-71.020747 42.347259 -12.5
-71.020511 42.345217 -12.5
-71.020216 42.345106 -12.5
-71.019269 42.345109 -12.5
-71.019455 42.345662 -12.5
-71.019808 42.346481 -12.5
-71.019802 42.346945 -12.5
-71.019116 42.346631 -12.5
-71.020222 42.345904 -12.5
-71.018991 42.344567 -12.5
-71.021538 42.346104 -12.5
-71.019019 42.345484 -12.5
-71.019152 42.344887 -12.5
-71.020291 42.344917 -12.5
-71.020630 42.344887 -12.5
-71.019200 42.346276 -12.5
-71.019916 42.346023 -12.5
-71.019319 42.345990 -12.5
-71.020369 42.347001 -12.8
-71.019144 42.345770 -13.1
-71.019391 42.345826 -13.1
-71.020727 42.345979 -13.1
-71.019700 42.346023 -13.1
-71.019872 42.346759 -12.8
-71.020494 42.346684 -12.8
-71.019844 42.346320 -13.1
-71.020458 42.346376 -13.1
-71.020675 42.346420 -13.1
-71.021400 42.346434 -13.1
-71.019169 42.346501 -13.1
-71.020530 42.346517 -13.1
-71.020844 42.346542 -13.1
-71.019441 42.346606 -13.1
-71.021058 42.346645 -13.1
-71.019744 42.346629 -12.8
-71.020405 42.346845 -13.1
-71.021616 42.346904 -13.1
-71.021258 42.346767 -12.8
-71.021341 42.346609 -12.8
-71.019938 42.346609 -12.8
-71.019077 42.346776 -12.8
-71.019672 42.346773 -12.8
-71.019586 42.346923 -12.8
-71.020055 42.346859 -12.8
-71.018986 42.346937 -12.8
-71.020083 42.346259 -12.8
-71.020319 42.346284 -12.8
-71.021180 42.346937 -12.8
-71.019280 42.346131 -12.8
-71.020680 42.346140 -12.8
-71.019541 42.347067 -12.8
-71.021100 42.347112 -12.8
-71.020313 42.347176 -12.8
-71.019477 42.347215 -12.8
-71.019558 42.345948 -12.8
-71.019313 42.345595 -12.8
-71.019661 42.347287 -12.8
-71.021047 42.347279 -12.8
-71.019727 42.347129 -12.8
-71.020150 42.346079 -12.8
-71.021263 42.345998 -12.8
-71.020583 42.347156 -12.8
-71.019302 42.344965 -12.2
-71.019638 42.345017 -12.2
-71.019055 42.345070 -12.2
-71.021108 42.345187 -12.2
-71.019802 42.345117 -12.2
-71.020572 42.345081 -12.2
-71.019172 42.345204 -12.2
-71.021066 42.345862 -12.2
-71.019505 42.344623 -12.2
-71.020136 42.345342 -11.9
-71.019527 42.344901 -12.2
-71.019413 42.344801 -12.2
-71.019244 42.344692 -12.2
-71.020675 42.345654 -11.9
-71.021611 42.345962 -11.6
-71.019900 42.346167 -12.2
-71.021469 42.346265 -12.2
-71.020291 42.345748 -12.2
-71.019983 42.345895 -11.9
-71.019516 42.345504 -12.2
-71.019363 42.345401 -12.2
-71.020958 42.345492 -12.2
-71.019402 42.345234 -12.2
-71.019641 42.345209 -12.2
-71.020347 42.345595 -12.2
-71.020075 42.345623 -12.2
-71.020808 42.345815 -12.2
-71.021680 42.345754 -12.2
-71.020902 42.345637 -12.2
-71.020366 42.345451 -11.9
-71.019972 42.345237 -11.9
-71.021166 42.344967 -13.4
-71.023166 42.345504 -13.4
-71.023038 42.346131 -9.3
-71.022238 42.346023 -11.9
-71.021988 42.347198 -12.2
-71.022886 42.346870 -12.2
-71.022036 42.346565 -12.2
-71.022197 42.346226 -12.2
-71.022991 42.345240 -12.2
-71.022825 42.345509 -11.9
-71.021755 42.345398 -12.2
-71.022900 42.345376 -12.2
-71.022538 42.347237 -12.2
-71.021900 42.346940 -11.9
-71.022633 42.346906 -11.9
-71.022705 42.346740 -11.9
-71.021827 42.345054 -12.2
-71.021719 42.345587 -11.9
-71.021761 42.347273 -12.8
-71.022761 42.345662 -12.8
-71.023469 42.347212 -12.8
-71.023322 42.347104 -12.8
-71.023680 42.347292 -13.1
-71.022594 42.347040 -13.1
-71.023136 42.345601 -13.1
-71.023413 42.345129 -13.1
-71.022102 42.347056 -12.8
-71.022433 42.345567 -12.5
-71.022608 42.345967 -12.5
-71.021786 42.346287 -12.5
-71.022336 42.346584 -12.5
-71.022161 42.346906 -12.5
-71.021969 42.346748 -12.5
-71.022241 42.346748 -12.5
-71.021813 42.347120 -12.5
-71.022355 42.345740 -12.5
-71.022694 42.345795 -12.5
-71.022305 42.345892 -12.5
-71.021780 42.345242 -12.5
-71.022852 42.347306 -12.5
-71.023061 42.347301 -12.5
-71.023344 42.345279 -12.5
-71.022588 42.345245 -12.5
-71.023000 42.347142 -12.5
-71.022266 42.347170 -12.5
-71.022511 42.345412 -12.5
-71.022527 42.346134 -11.3
-71.023061 42.347006 -11.3
-71.022952 42.346295 -9.8
-71.022902 42.346434 -9.8
-71.023577 42.344620 -9.8
-71.021977 42.344587 -9.8
-71.022802 42.344756 -9.8
-71.021927 42.344751 -9.4
-71.021888 42.344906 -9.4
-71.023077 42.345976 -9.4
-71.023347 42.344751 -8.5
-71.022677 42.345073 -8.5
-71.023250 42.344856 -9.1
-71.023461 42.344965 -8.5
-71.023047 42.345117 -9.1
-71.023511 42.344790 -8.2
-71.023155 42.344987 -8.2
-71.022713 42.344920 -8.2
-71.022113 42.346401 -10.4
-71.022466 42.346281 -10.4
-71.023100 42.345773 -11.0
-71.022394 42.346434 -10.1
-71.022847 42.344595 -10.1
-71.016594 42.348017 -10.1
-71.017711 42.348531 -10.1
-71.018197 42.348073 -11.0
-71.018858 42.348881 -11.0
-71.018347 42.348909 -11.0
-71.017691 42.348081 -11.0
-71.018452 42.348170 -11.0
-71.018794 42.349020 -11.0
-71.016694 42.347820 -11.0
-71.018833 42.347829 -11.0
-71.017588 42.347895 -11.0
-71.018569 42.349006 -11.0
-71.017158 42.347967 -11.0
-71.017905 42.348026 -11.0
-71.016913 42.348031 -11.0
-71.017477 42.348042 -11.0
-71.017308 42.347320 -11.0
-71.018730 42.349184 -11.0
-71.016261 42.347426 -11.0
-71.018163 42.348248 -11.0
-71.017319 42.347634 -11.0
-71.017286 42.348404 -11.0
-71.018666 42.347479 -11.0
-71.017427 42.347479 -11.0
-71.018922 42.348709 -11.0
-71.017838 42.348181 -11.0
-71.017511 42.348187 -11.0
-71.018750 42.348526 -11.0
-71.017758 42.348359 -10.4
-71.016841 42.347545 -10.4
-71.016375 42.347745 -10.4
-71.018075 42.348734 -10.4
-71.018227 42.348426 -10.4
-71.017475 42.348509 -10.4
-71.016802 42.348487 -10.4
-71.017927 42.348595 -10.4
-71.016941 42.347840 -10.7
-71.017966 42.348306 -10.7
-71.016963 42.348295 -10.7
-71.017313 42.348254 -10.7
-71.017236 42.347834 -10.7
-71.017013 42.347712 -10.7
-71.018616 42.348851 -10.7
-71.016944 42.347354 -10.7
-71.016380 42.347351 -10.7
-71.017511 42.348359 -10.7
-71.018683 42.348698 -10.7
-71.018352 42.348687 -10.7
-71.018438 42.348401 -10.7
-71.018494 42.348573 -10.7
-71.018133 42.348584 -10.7
-71.017186 42.347456 -10.7
-71.016586 42.347456 -10.7
-71.016444 42.347601 -10.7
-71.016722 42.349042 -7.6
-71.018102 42.349737 -7.6
-71.018122 42.349390 -8.2
-71.017444 42.349226 -8.2
-71.017136 42.349240 -8.2
-71.016486 42.349081 -7.9
-71.017919 42.349531 -8.2
-71.017852 42.349931 -7.9
-71.017638 42.349790 -7.9
-71.018352 42.349492 -7.9
-71.016822 42.348737 -8.2
-71.017438 42.348854 -8.2
-71.016525 42.348956 -8.2
-71.017466 42.349065 -8.2
-71.018038 42.348920 -8.2
-71.017733 42.349562 -8.2
-71.017900 42.349765 -7.6
-71.017327 42.349512 -8.8
-71.017608 42.350042 -8.8
-71.017697 42.348976 -8.5
-71.016847 42.349298 -8.8
-71.016719 42.348848 -8.8
-71.017075 42.349340 -8.8
-71.017230 42.348945 -8.5
-71.016672 42.349440 -8.8
-71.016650 42.349595 -9.1
-71.017508 42.349454 -8.8
-71.017263 42.349723 -9.1
-71.016883 42.349565 -9.1
-71.016669 42.349179 -9.1
-71.017388 42.349923 -9.1
-71.018091 42.349198 -8.8
-71.017150 42.349076 -8.8
-71.016947 42.349104 -8.8
-71.017891 42.349276 -8.5
-71.016258 42.349176 -8.8
-71.017613 42.349329 -8.5
-71.016322 42.348840 -8.5
-71.016161 42.348934 -9.1
-71.017830 42.349387 -8.5
-71.017319 42.349367 -9.1
-71.017705 42.349659 -8.5
-71.017158 42.349926 -9.1
-71.018166 42.349554 -8.5
-71.017952 42.350090 -9.1
-71.017016 42.348620 -9.1
-71.017016 42.349690 -9.1
-71.017466 42.349662 -8.5
-71.017675 42.349181 -9.4
-71.017086 42.350092 -9.4
-71.016550 42.349781 -9.4
-71.016638 42.348640 -9.4
-71.018925 42.349426 -9.4
-71.016611 42.348140 -9.4
-71.016419 42.348284 -9.8
-71.017961 42.349073 -9.8
-71.017616 42.348712 -9.8
-71.017197 42.348576 -9.8
-71.016463 42.348534 -9.8
-71.016588 42.348390 -9.8
-71.018672 42.348309 -11.3
-71.018338 42.347551 -11.3
-71.018158 42.347437 -11.3
-71.018022 42.347706 -11.3
-71.018633 42.347612 -11.3
-71.018261 42.347848 -11.3
-71.018472 42.347945 -11.3
-71.016441 42.349965 -11.9
-71.018180 42.347337 -11.6
-71.017680 42.347704 -11.1
-71.017972 42.347842 -11.1
-71.018597 42.347804 -11.1
-71.018350 42.347673 -11.1
-71.018113 42.347562 -11.1
-71.017763 42.347548 -11.1
-71.017825 42.347384 -11.1
-71.018725 42.348048 -11.1
-71.018725 42.349731 -5.2
-71.018627 42.349854 -4.9
-71.018505 42.349220 -5.8
-71.018802 42.349992 -4.9
-71.018444 42.349854 -5.5
-71.018294 42.349162 -6.4
-71.018050 42.349898 -7.3
-71.018413 42.349348 -7.0
-71.018300 42.349681 -7.3
-71.018475 42.349667 -7.0
-71.017016 42.348851 -7.3
-71.018658 42.349345 -6.7
-71.017116 42.348734 -7.3
-71.016925 42.348951 -7.3
-71.018597 42.349465 -6.4
-71.018858 42.349595 -6.4
-71.018177 42.349995 -4.0
-71.018438 42.349973 -4.3
-71.018661 42.350095 -4.3
-71.019102 42.349595 -6.7
-71.019058 42.349729 -6.7
-71.019280 42.349876 -7.0
-71.019497 42.349937 -7.0
-71.019216 42.350065 -5.2
-71.018980 42.349895 -5.2
-71.019891 42.348456 -11.1
-71.019325 42.347634 -11.1
-71.020452 42.349990 -11.1
-71.020511 42.349826 -11.1
-71.021216 42.348709 -11.1
-71.020655 42.348292 -11.1
-71.020255 42.348084 -11.1
-71.020141 42.348315 -11.1
-71.020858 42.349617 -11.1
-71.020152 42.349692 -11.1
-71.019547 42.347712 -11.9
-71.021650 42.347465 -11.9
-71.021680 42.348770 -11.9
-71.021686 42.348040 -12.2
-71.021636 42.348209 -12.2
-71.021530 42.347826 -12.2
-71.021605 42.347637 -12.2
-71.019705 42.347829 -11.3
-71.019191 42.347790 -11.3
-71.019050 42.347901 -11.3
-71.019150 42.348026 -11.3
-71.019391 42.348023 -11.3
-71.019800 42.349779 -11.3
-71.020272 42.349192 -11.3
-71.020947 42.348767 -11.3
-71.021241 42.349181 -11.3
-71.021136 42.348856 -11.3
-71.019836 42.348323 -11.3
-71.020319 42.348445 -11.3
-71.021616 42.349712 -11.3
-71.020672 42.349973 -11.3
-71.020586 42.348492 -11.3
-71.019094 42.347417 -11.3
-71.020661 42.349445 -11.3
-71.020044 42.348520 -11.3
-71.020875 42.348523 -11.3
-71.019219 42.348562 -11.3
-71.020019 42.350070 -11.3
-71.018980 42.348542 -11.6
-71.020200 42.348804 -11.6
-71.020455 42.348815 -11.6
-71.021455 42.349298 -11.3
-71.020247 42.348617 -11.3
-71.020463 42.349256 -11.3
-71.020694 42.348670 -11.3
-71.020261 42.349356 -11.3
-71.020669 42.348859 -11.3
-71.020013 42.349045 -11.3
-71.021077 42.349095 -11.3
-71.020911 42.348967 -11.3
-71.021394 42.348870 -11.3
-71.019591 42.347481 -12.5
-71.020975 42.347454 -13.1
-71.021302 42.348587 -12.8
-71.020700 42.348142 -13.1
-71.021111 42.348509 -12.8
-71.021505 42.348531 -12.8
-71.019363 42.347512 -13.1
-71.020169 42.347504 -13.1
-71.021319 42.348365 -13.1
-71.021488 42.348681 -12.8
-71.020927 42.348365 -13.1
-71.020908 42.347629 -12.8
-71.021325 42.347498 -12.8
-71.020094 42.347656 -12.8
-71.021463 42.348017 -12.8
-71.020772 42.347970 -12.8
-71.021569 42.348384 -12.8
-71.021388 42.348167 -12.8
-71.020255 42.347331 -12.8
-71.019427 42.347351 -12.8
-71.020850 42.347801 -12.8
-71.020058 42.347823 -12.8
-71.019752 42.349984 -9.4
-71.019336 42.349720 -9.1
-71.019091 42.348912 -10.7
-71.019966 42.349417 -10.7
-71.019638 42.349515 -10.7
-71.019505 42.349365 -10.7
-71.019047 42.349056 -10.7
-71.019400 42.349537 -10.7
-71.019658 42.349031 -10.7
-71.020177 42.349551 -10.7
-71.021072 42.349673 -10.7
-71.020758 42.349801 -10.7
-71.018969 42.347667 -10.7
-71.021036 42.349820 -10.7
-71.019980 42.347979 -10.7
-71.020908 42.349934 -10.7
-71.021488 42.350020 -10.7
-71.021038 42.350045 -10.7
-71.019747 42.349309 -10.7
-71.021016 42.349209 -10.7
-71.019519 42.349154 -10.7
-71.019952 42.349262 -10.7
-71.021613 42.349112 -10.7
-71.019241 42.349312 -10.7
-71.019855 42.349606 -10.4
-71.020505 42.348620 -11.0
-71.021344 42.349817 -11.0
-71.019172 42.348712 -11.0
-71.019127 42.348190 -11.0
-71.019933 42.348192 -11.0
-71.019541 42.348470 -11.0
-71.019636 42.348298 -11.0
-71.019036 42.348362 -11.0
-71.019272 42.348370 -11.0
-71.021569 42.349876 -11.0
-71.018983 42.349234 -11.0
-71.021458 42.349426 -11.0
-71.020891 42.349456 -11.0
-71.021152 42.349506 -11.0
-71.021705 42.349531 -11.0
-71.021694 42.349406 -11.0
-71.021213 42.349323 -11.0
-71.020311 42.348931 -11.0
-71.021608 42.348934 -11.0
-71.021383 42.349684 -11.0
-71.021344 42.348992 -11.0
-71.019611 42.347979 -11.0
-71.019994 42.349915 -11.0
-71.020513 42.349006 -11.0
-71.019386 42.347873 -11.0
-71.021241 42.350070 -11.0
-71.020408 42.349656 -11.0
-71.019577 42.349754 -11.0
-71.019316 42.349037 -11.0
-71.020752 42.349109 -11.0
-71.019369 42.348156 -11.0
-71.019763 42.348090 -11.0
-71.019527 42.348742 -11.0
-71.019866 42.348756 -11.0
-71.019786 42.348879 -11.0
-71.022044 42.350070 -11.0
-71.022772 42.350029 -11.0
-71.023011 42.349954 -11.0
-71.022238 42.350023 -11.0
-71.022105 42.349295 -11.0
-71.022300 42.349912 -11.0
-71.022533 42.349909 -11.0
-71.022586 42.349501 -11.0
-71.022280 42.349426 -11.0
-71.021822 42.349201 -11.0
-71.021919 42.349759 -11.0
-71.021997 42.349598 -11.0
-71.022130 42.349709 -11.0
-71.022616 42.349787 -11.0
-71.023069 42.349790 -11.0
-71.022777 42.349873 -11.0
-71.023113 42.350073 -10.7
-71.022366 42.349779 -10.7
-71.022788 42.349673 -10.7
-71.021788 42.350084 -10.7
-71.023641 42.347804 -12.8
-71.024400 42.349076 -13.1
-71.024294 42.348134 -12.8
-71.024416 42.347654 -12.8
-71.022613 42.348773 -13.1
-71.023216 42.347576 -12.8
-71.023688 42.347665 -12.8
-71.023991 42.347479 -13.1
-71.023730 42.347537 -13.1
-71.023427 42.347681 -13.1
-71.023875 42.347862 -13.1
-71.024075 42.347945 -13.1
-71.022361 42.348679 -12.8
-71.023961 42.348806 -12.8
-71.022477 42.349331 -12.8
-71.024336 42.349234 -12.8
-71.022583 42.348904 -12.8
-71.022538 42.349034 -12.8
-71.024183 42.348981 -12.8
-71.022813 42.347426 -12.5
-71.023847 42.347365 -12.5
-71.023288 42.348592 -12.5
-71.023652 42.348648 -12.5
-71.022413 42.348531 -12.5
-71.023491 42.348565 -12.5
-71.022147 42.348551 -12.5
-71.022741 42.348476 -12.5
-71.022230 42.348279 -12.5
-71.023088 42.349179 -12.5
-71.023113 42.348387 -12.5
-71.022855 42.348081 -12.5
-71.022966 42.348262 -12.5
-71.022425 42.347548 -12.5
-71.024055 42.349720 -12.5
-71.024436 42.347809 -12.5
-71.022788 42.347601 -12.5
-71.023530 42.349631 -12.5
-71.024258 42.349392 -12.5
-71.023516 42.348051 -12.5
-71.024344 42.348006 -12.5
-71.023783 42.349120 -12.5
-71.022288 42.348823 -12.5
-71.023858 42.348967 -12.5
-71.021936 42.349054 -12.5
-71.023233 42.348873 -12.5
-71.023169 42.348998 -12.5
-71.022194 42.349017 -12.5
-71.022983 42.349537 -12.5
-71.023158 42.349531 -12.5
-71.024158 42.349545 -12.5
-71.023700 42.350042 -11.6
-71.023458 42.349940 -11.6
-71.023719 42.349831 -11.6
-71.021858 42.349920 -11.3
-71.023241 42.349856 -11.3
-71.022358 42.349604 -11.3
-71.023450 42.349779 -11.3
-71.021975 42.348915 -12.2
-71.021855 42.347545 -12.2
-71.022508 42.349190 -12.2
-71.022169 42.349142 -12.2
-71.023686 42.349304 -12.2
-71.022813 42.349409 -12.2
-71.023044 42.349354 -12.2
-71.022694 42.349284 -12.2
-71.023050 42.347412 -12.2
-71.023630 42.349454 -12.2
-71.023327 42.349640 -12.2
-71.022794 42.348292 -12.2
-71.022713 42.347762 -12.2
-71.023397 42.348334 -12.2
-71.023288 42.348723 -12.2
-71.024111 42.348473 -12.2
-71.022986 42.347679 -12.2
-71.023325 42.348476 -12.2
-71.022477 42.348370 -12.2
-71.021813 42.347717 -12.2
-71.022383 42.347704 -12.2
-71.022072 42.348723 -12.2
-71.024016 42.348656 -12.2
-71.022544 42.348223 -12.2
-71.022611 42.348073 -12.2
-71.023450 42.348204 -12.2
-71.022275 42.348109 -12.2
-71.021744 42.347873 -12.2
-71.022927 42.347898 -12.2
-71.022422 42.348012 -12.2
-71.022655 42.347906 -12.2
-71.022244 42.347912 -12.2
-71.023555 42.347948 -12.2
-71.022694 42.347331 -12.2
-71.022033 42.347831 -11.9
-71.021938 42.347351 -12.2
-71.022480 42.347390 -12.2
-71.022044 42.349454 -11.1
-71.024044 42.349995 -11.1
-71.024183 42.348320 -13.4
-71.024230 42.347567 -13.4
-71.026011 42.348790 -13.4
-71.025733 42.349956 -13.4
-71.025433 42.348520 -13.7
-71.025047 42.348345 -13.7
-71.026744 42.348251 -11.9
-71.027197 42.348645 -11.9
-71.027036 42.348976 -11.9
-71.027197 42.348820 -11.9
-71.026819 42.348659 -12.2
-71.024711 42.348529 -12.2
-71.026205 42.349223 -12.2
-71.027163 42.349487 -11.6
-71.025591 42.349526 -12.5
-71.025547 42.348890 -12.5
-71.025919 42.348951 -12.5
-71.024616 42.348692 -12.5
-71.025005 42.347934 -12.5
-71.025061 42.349623 -12.5
-71.025230 42.348009 -12.5
-71.027072 42.349654 -12.5
-71.024894 42.348154 -12.5
-71.024844 42.350067 -12.5
-71.026261 42.348384 -12.5
-71.026652 42.348412 -12.5
-71.026405 42.348504 -12.5
-71.025769 42.348512 -12.5
-71.026547 42.348595 -12.5
-71.025819 42.349162 -12.5
-71.024808 42.349223 -12.8
-71.025325 42.349245 -12.8
-71.026333 42.348945 -12.8
-71.025694 42.349367 -12.8
-71.026800 42.349298 -12.8
-71.024513 42.348892 -12.8
-71.025188 42.349434 -12.8
-71.026627 42.349559 -12.8
-71.026052 42.349434 -12.8
-71.025933 42.349604 -12.8
-71.026116 42.348581 -12.8
-71.026638 42.350029 -12.8
-71.026505 42.349804 -13.1
-71.025216 42.348440 -13.1
-71.025644 42.348704 -13.1
-71.025413 42.348112 -12.8
-71.025883 42.348359 -12.8
-71.025588 42.348192 -12.8
-71.024788 42.348367 -12.8
-71.024944 42.348037 -12.8
-71.026066 42.349779 -13.1
-71.026547 42.349031 -13.1
-71.025419 42.349451 -13.1
-71.025419 42.349065 -13.1
-71.024566 42.349154 -13.1
-71.024975 42.349298 -13.1
-71.024627 42.347759 -12.8
-71.026752 42.349109 -13.1
-71.026238 42.349090 -13.1
-71.024808 42.347862 -12.8
-71.025705 42.349645 -12.8
-71.026447 42.348776 -12.8
-71.025752 42.348234 -13.1
-71.025058 42.349773 -12.8
-71.025497 42.349745 -12.8
-71.025836 42.349776 -12.8
-71.026963 42.349795 -12.8
-71.025997 42.348179 -13.1
-71.026300 42.349862 -12.8
-71.024966 42.349906 -12.8
-71.026872 42.349956 -12.8
-71.025375 42.349926 -12.8
-71.026386 42.349987 -12.8
-71.026977 42.349217 -10.7
-71.027252 42.349395 -9.4
-71.027553 42.349526 -9.4
-71.028420 42.349912 -9.4
-71.030003 42.350009 -9.4
-71.028192 42.349854 -9.1
-71.027756 42.349090 -9.8
-71.027400 42.349126 -9.8
-71.029973 42.349581 -9.8
-71.028739 42.349498 -9.8
-71.029792 42.349806 -9.8
-71.028364 42.349312 -9.8
-71.027598 42.349376 -9.8
-71.028631 42.349281 -10.7
-71.027698 42.349242 -10.7
-71.028312 42.349726 -10.7
-71.027956 42.349662 -10.7
-71.028984 42.349709 -10.7
-71.029214 42.349417 -11.0
-71.027592 42.348981 -11.0
-71.027814 42.348956 -11.0
-71.027302 42.349256 -10.4
-71.029409 42.349762 -10.4
-71.028912 42.349606 -10.4
-71.029184 42.349687 -10.1
-71.028706 42.349609 -10.1
-71.028548 42.349773 -10.1
-71.028148 42.349242 -10.1
-71.028403 42.349570 -10.1
-71.027756 42.349576 -10.1
-71.029112 42.349540 -10.1
-71.028501 42.349415 -10.1
-71.028726 42.349159 -10.1
-71.027967 42.349137 -10.1
-71.029689 42.349931 -10.1
-71.028748 42.349951 -10.1
-71.028870 42.349848 -10.1
-71.027387 42.349812 -12.8
-71.027439 42.349681 -12.8
-71.028312 42.350081 -12.8
-71.027317 42.349954 -12.2
-71.028101 42.350037 -12.2
-71.027400 42.348895 -12.2
-71.027622 42.348809 -11.9
-71.030212 42.350015 -10.1
-71.030345 42.349879 -9.8
-71.037928 42.349154 -6.1
-71.038009 42.349054 -6.1
-71.038112 42.348931 -5.8
-71.037476 42.349851 -6.4
-71.037292 42.350042 -6.7
-71.037623 42.349623 -6.7
-71.037731 42.349465 -6.4
-71.037831 42.349331 -6.7
-71.037539 42.349745 -6.7
-71.039864 42.349817 -6.4
-71.039964 42.349648 -6.4
-71.039742 42.349973 -6.7
-71.040414 42.349831 -10.7
-71.040292 42.349992 -12.5
-71.060473 42.344342 -3.8
-71.060595 42.343965 -3.8
-71.060398 42.344467 -4.0
-71.060503 42.344212 -4.0
-71.060556 42.344098 -4.0
-71.060756 42.343592 -4.0
-71.060792 42.343456 -4.0
-71.061028 42.342862 -4.6
-71.060989 42.342976 -4.3
-71.061078 42.342770 -4.3
-71.061123 42.342615 -4.3
-71.060845 42.343345 -4.3
-71.060881 42.343226 -4.3
-71.060948 42.343101 -4.3
-71.060664 42.343831 -3.8
-71.060701 42.343695 -3.8
-71.055026 42.347237 -3.7
-71.054487 42.346981 -7.0
-71.054542 42.346906 -7.0
-71.054420 42.347059 -7.0
-71.054578 42.347051 -7.0
-71.054362 42.347126 -7.0
-71.054689 42.347054 -6.7
-71.054534 42.347148 -7.0
-71.054803 42.346904 -7.0
-71.054976 42.346681 -7.3
-71.054628 42.346570 -7.0
-71.054626 42.347126 -6.7
-71.054570 42.347204 -6.7
-71.054501 42.347298 -6.7
-71.054662 42.346759 -7.3
-71.054339 42.346701 -7.3
-71.054948 42.346401 -6.7
-71.054306 42.347209 -7.0
-71.054714 42.346698 -6.7
-71.054764 42.346973 -6.7
-71.054612 42.346826 -7.3
-71.054470 42.346526 -7.3
-71.054939 42.346615 -7.3
-71.054434 42.347234 -7.0
-71.055034 42.346606 -7.3
-71.054864 42.346834 -7.3
-71.054256 42.347292 -7.0
-71.054570 42.346654 -7.3
-71.054842 42.347215 -6.1
-71.054987 42.347012 -6.1
-71.054223 42.346870 -6.1
-71.054862 42.347317 -5.8
-71.054764 42.346392 -5.8
-71.054867 42.346231 -5.8
-71.055023 42.345976 -6.4
-71.054967 42.346062 -6.4
-71.054820 42.346312 -5.8
-71.054948 42.347226 -5.8
-71.055028 42.347142 -5.8
-71.054767 42.347317 -5.8
-71.054914 42.347106 -5.8
-71.054289 42.346792 -5.5
-71.055006 42.346342 -6.4
-71.054859 42.346356 -6.4
-71.054909 42.346142 -6.1
-71.054712 42.346479 -6.4
-71.054892 42.346484 -6.4
-71.054834 42.346556 -6.4
-71.054784 42.346629 -6.4
-71.054337 42.346912 -7.6
-71.054892 42.346698 -7.6
-71.054401 42.346609 -7.6
-71.054523 42.346440 -7.6
-71.054481 42.346737 -7.6
-71.054078 42.347267 -7.6
-71.054273 42.346990 -7.6
-71.054926 42.346765 -7.6
-71.054098 42.347034 -7.9
-71.054401 42.346826 -7.9
-71.053984 42.347212 -7.9
-71.054628 42.346384 -7.9
-71.054167 42.346954 -7.6
-71.054045 42.347115 -7.9
-71.054201 42.347076 -7.9
-71.054817 42.346776 -7.6
-71.053903 42.347304 -8.2
-71.054120 42.347170 -8.2
-71.055759 42.346256 -7.6
-71.055431 42.346712 -6.4
-71.055062 42.346884 -6.4
-71.055956 42.346362 -6.4
-71.055106 42.347059 -5.5
-71.055087 42.345887 -5.8
-71.055351 42.346137 -6.1
-71.055414 42.346065 -6.1
-71.055223 42.346051 -6.1
-71.055964 42.346215 -6.1
-71.055339 42.346806 -6.1
-71.055645 42.346651 -5.5
-71.055812 42.346159 -6.1
-71.055192 42.345631 -5.8
-71.055320 42.345306 -6.1
-71.055076 42.346259 -6.4
-71.055312 42.346209 -6.4
-71.055120 42.346195 -6.4
-71.055378 42.345184 -6.1
-71.055589 42.346173 -5.8
-71.055170 42.346129 -6.4
-71.055298 42.345898 -5.2
-71.055420 42.346120 -6.4
-71.056173 42.346179 -5.8
-71.057623 42.345915 -6.4
-71.055920 42.346470 -5.5
-71.055884 42.346565 -5.2
-71.055823 42.346037 -5.2
-71.055259 42.345965 -5.2
-71.057781 42.345881 -6.4
-71.055162 42.345723 -5.2
-71.055534 42.345820 -5.2
-71.055439 42.345812 -5.2
-71.056431 42.346148 -5.5
-71.055262 42.345470 -6.4
-71.055339 42.345254 -6.4
-71.055148 42.346973 -6.1
-71.057356 42.345976 -5.8
-71.055551 42.346087 -5.8
-71.057220 42.346017 -5.5
-71.057495 42.345951 -5.8
-71.055226 42.345562 -5.8
-71.055451 42.345995 -5.5
-71.055384 42.345137 -6.4
-71.056292 42.346165 -5.8
-71.055123 42.345804 -5.5
-71.055298 42.345404 -5.8
-71.056570 42.346120 -5.5
-71.056714 42.346109 -5.5
-71.055684 42.346067 -5.5
-71.055264 42.346287 -6.7
-71.055592 42.346240 -6.7
-71.055664 42.346376 -7.3
-71.055181 42.346342 -6.7
-71.055364 42.346290 -6.7
-71.055723 42.346209 -7.0
-71.055201 42.346876 -6.7
-71.055767 42.346467 -6.7
-71.055706 42.346565 -6.7
-71.055226 42.346670 -7.3
-71.055323 42.346704 -7.3
-71.055512 42.346598 -7.0
-71.055320 42.346573 -7.0
-71.055398 42.346520 -7.0
-71.055578 42.346501 -7.0
-71.055403 42.346451 -7.0
-71.055148 42.346451 -7.0
-71.055092 42.346529 -7.0
-71.055217 42.346781 -7.3
-71.055134 42.346781 -7.0
-71.055364 42.346637 -7.0
-71.055578 42.346420 -7.0
-71.055826 42.346395 -7.0
-71.055878 42.346304 -7.0
-71.055495 42.346279 -7.0
-71.055501 42.346351 -7.0
-71.056834 42.346076 -4.9
-71.056937 42.346062 -4.9
-71.055551 42.345873 -4.9
-71.055801 42.345815 -4.6
-71.056284 42.345787 -4.0
-71.055673 42.345817 -4.6
-71.056151 42.345792 -4.0
-71.055489 42.345934 -4.6
-71.056353 42.346287 -4.0
-71.055687 42.346845 -2.7
-71.055512 42.346826 -4.0
-71.055359 42.347009 -3.4
-71.055109 42.347129 -4.0
-71.055314 42.347098 -3.4
-71.055364 42.345815 -4.9
-71.056278 42.346470 -2.7
-71.056151 42.346526 -2.7
-71.055751 42.346759 -4.0
-71.055173 42.347029 -4.3
-71.055909 42.345820 -4.3
-71.055228 42.347198 -3.0
-71.056006 42.346567 -3.0
-71.056098 42.345992 -3.0
-71.055406 42.345740 -4.0
-71.055162 42.347298 -3.0
-71.056512 42.345804 -3.4
-71.055456 42.345670 -3.0
-71.055581 42.346740 -4.6
-71.056539 42.346237 -3.7
-71.057062 42.346048 -4.3
-71.055726 42.346681 -4.3
-71.055814 42.346673 -4.3
-71.055959 42.346012 -4.3
-71.055259 42.346923 -4.3
-71.056167 42.346317 -4.6
-71.056398 42.345790 -3.7
-71.056498 42.345901 -1.8
-71.055476 42.347134 -1.2
-71.055392 42.347240 -1.2
-71.055956 42.346759 -1.5
-71.056237 42.345956 -2.1
-71.056364 42.345931 -2.1
-71.055612 42.346937 -2.1
-71.055545 42.347045 -1.5
-71.055781 42.346820 -1.8
-71.055445 42.346904 -2.4
-71.056537 42.346395 -1.8
-71.056389 42.346431 -2.4
-71.056128 42.346681 -1.2
-71.056314 42.346629 -0.3
-71.055845 42.346617 -3.8
-71.056045 42.345792 -3.8
-71.055617 42.346881 -2.0
-71.056492 42.346548 -0.2
-71.059614 42.345026 -4.6
-71.059284 42.345237 -4.6
-71.059745 42.344951 -4.6
-71.059853 42.344887 -4.9
-71.059987 42.344823 -4.6
-71.060295 42.344592 -4.9
-71.059170 42.345298 -4.9
-71.059031 42.345379 -4.6
-71.058681 42.345551 -4.9
-71.058303 42.345726 -4.9
-71.058439 42.345665 -4.6
-71.059381 42.345165 -4.3
-71.059484 42.345106 -4.3
-71.058809 42.345490 -4.6
-71.058923 42.345429 -4.6
-71.058542 42.345604 -4.6
-71.060084 42.344762 -4.6
-71.058059 42.345809 -5.5
-71.060187 42.344687 -5.2
-71.058173 42.345748 -5.8
-71.057923 42.345840 -5.8
-71.052228 42.349865 -6.1
-71.051906 42.349965 -5.5
-71.052231 42.349584 -5.5
-71.052051 42.349781 -5.5
-71.052145 42.349679 -5.2
-71.051976 42.349867 -5.2
-71.051839 42.350056 -5.5
-71.051659 42.350062 -5.5
-71.052137 42.349940 -6.1
-71.052076 42.350012 -6.1
-71.051731 42.349976 -4.6
-71.051937 42.349709 -4.6
-71.052145 42.349445 -4.6
-71.051809 42.349887 -4.3
-71.051853 42.349804 -4.3
-71.052001 42.349623 -4.6
-71.052073 42.349534 -4.6
-71.052214 42.349362 -4.6
-71.052276 42.349290 -4.6
-71.053153 42.349970 -2.7
-71.053339 42.349529 -3.0
-71.053412 42.349426 -3.0
-71.053634 42.349356 -3.0
-71.053498 42.349323 -3.0
-71.053692 42.349267 -3.0
-71.053459 42.349715 -3.0
-71.053351 42.349709 -3.0
-71.053406 42.349631 -3.0
-71.053895 42.348984 -3.0
-71.053189 42.350084 -2.7
-71.053576 42.349215 -3.0
-71.053898 42.349137 -3.0
-71.053831 42.349084 -3.0
-71.053842 42.348640 -4.0
-71.053898 42.348545 -4.0
-71.052948 42.348440 -4.0
-71.053584 42.349009 -4.0
-71.053642 42.348923 -4.0
-71.054770 42.347573 -3.7
-71.054845 42.347465 -3.7
-71.054951 42.347356 -3.7
-71.052423 42.349117 -4.6
-71.054020 42.348379 -4.6
-71.053237 42.348095 -3.4
-71.053320 42.348015 -3.0
-71.054378 42.348109 -3.0
-71.053087 42.348267 -3.7
-71.054701 42.347662 -3.7
-71.052995 42.349804 -4.3
-71.053245 42.349642 -3.4
-71.053067 42.349726 -4.3
-71.053117 42.349887 -3.4
-71.053189 42.349756 -3.4
-71.054537 42.347892 -3.4
-71.052892 42.349967 -4.3
-71.052931 42.349898 -4.3
-71.054445 42.348012 -3.4
-71.052348 42.349204 -4.6
-71.053376 42.347917 -3.4
-71.053959 42.348684 -3.0
-71.053012 42.348365 -3.7
-71.054289 42.348223 -3.0
-71.052851 42.350065 -4.3
-71.054614 42.347787 -3.4
-71.053534 42.347751 -3.4
-71.054126 42.348204 -4.6
-71.053323 42.349373 -3.7
-71.053270 42.349459 -3.7
-71.053120 42.349637 -4.3
-71.054078 42.348292 -4.3
-71.053398 42.349287 -3.7
-71.053728 42.348820 -4.3
-71.053770 42.348745 -4.3
-71.054348 42.347859 -5.2
-71.054295 42.347951 -5.2
-71.053509 42.347956 -5.2
-71.054245 42.348031 -5.2
-71.053287 42.348229 -5.2
-71.053223 42.348315 -5.2
-71.053064 42.348504 -5.2
-71.053001 42.348595 -5.2
-71.052931 42.348690 -5.2
-71.052745 42.348698 -5.2
-71.052787 42.348879 -5.2
-71.052714 42.348965 -5.2
-71.052651 42.349042 -5.2
-71.052573 42.349142 -5.2
-71.052431 42.349317 -5.2
-71.052301 42.349487 -5.2
-71.053467 42.347829 -4.6
-71.053998 42.348451 -4.3
-71.053953 42.348890 -2.7
-71.053792 42.348890 -3.7
-71.053767 42.349323 -2.7
-71.053192 42.349545 -4.3
-71.053456 42.349212 -3.7
-71.053528 42.349106 -3.7
-71.053839 42.349220 -2.7
-71.053764 42.349184 -2.7
-71.053045 42.350009 -3.7
-71.052470 42.349037 -4.9
-71.053376 42.348134 -4.9
-71.054189 42.348123 -4.9
-71.055026 42.347473 -2.7
-71.054031 42.348565 -3.4
-71.054867 42.347667 -3.0
-71.054517 42.348117 -2.7
-71.054576 42.348040 -2.7
-71.053864 42.348784 -3.4
-71.054795 42.347754 -2.7
-71.054920 42.347573 -2.7
-71.053626 42.349117 -3.4
-71.053714 42.349001 -3.4
-71.053445 42.348051 -4.9
-71.054192 42.348348 -3.4
-71.052881 42.348526 -4.6
-71.054114 42.348462 -3.4
-71.053398 42.349817 -3.0
-71.053292 42.349804 -3.0
-71.053523 42.349623 -2.7
-71.053473 42.349540 -2.7
-71.053678 42.349417 -2.7
-71.052667 42.348770 -4.9
-71.052806 42.348606 -4.9
-71.053612 42.349506 -2.7
-71.052612 42.348851 -4.9
-71.053326 42.349895 -3.0
-71.053217 42.349890 -3.0
-71.053537 42.349451 -2.7
-71.052553 42.348934 -4.9
-71.053042 42.349509 -6.4
-71.053895 42.348434 -5.8
-71.052970 42.349501 -6.4
-71.053651 42.347779 -5.8
-71.053120 42.349398 -6.4
-71.052826 42.349317 -6.4
-71.052801 42.349837 -6.4
-71.052409 42.349631 -6.4
-71.053537 42.348240 -6.1
-71.054684 42.347442 -5.8
-71.053484 42.348317 -6.1
-71.053928 42.348265 -6.1
-71.053998 42.348179 -6.1
-71.052887 42.349726 -6.4
-71.053609 42.347659 -6.1
-71.054609 42.347562 -6.1
-71.053820 42.348540 -5.8
-71.054081 42.348084 -6.1
-71.054142 42.347987 -6.1
-71.054214 42.347904 -6.1
-71.054381 42.347709 -6.1
-71.053576 42.348842 -5.8
-71.053659 42.348742 -5.8
-71.052853 42.348787 -5.5
-71.052967 42.349623 -6.4
-71.052731 42.349937 -6.1
-71.053151 42.348412 -5.5
-71.053426 42.348395 -6.1
-71.053848 42.348359 -6.1
-71.053331 42.348542 -6.1
-71.053392 42.348470 -6.1
-71.053623 42.348465 -6.1
-71.053773 42.348462 -6.1
-71.053395 42.348762 -6.4
-71.053464 42.348679 -6.4
-71.052737 42.349206 -6.1
-71.053337 42.348840 -6.4
-71.053601 42.348670 -6.1
-71.053289 42.349187 -6.1
-71.053178 42.348801 -6.4
-71.053517 42.348615 -6.4
-71.052698 42.349270 -6.1
-71.053012 42.349037 -6.4
-71.052359 42.349406 -5.5
-71.052503 42.349226 -5.5
-71.053392 42.349076 -5.5
-71.052956 42.349109 -6.4
-71.053051 42.349201 -6.4
-71.053189 42.349187 -6.4
-71.052581 42.349409 -6.1
-71.053103 42.349134 -6.4
-71.053070 42.348956 -6.4
-71.053487 42.348959 -5.5
-71.053573 42.347881 -5.5
-71.053201 42.348684 -6.1
-71.054589 42.347609 -5.5
-71.052884 42.349220 -6.4
-71.054478 42.347684 -5.5
-71.054423 42.347781 -5.5
-71.053206 42.349292 -6.4
-71.053126 42.349281 -6.4
-71.052995 42.349281 -6.4
-71.052639 42.349340 -6.1
-71.052284 42.349776 -6.1
-71.053570 42.348545 -6.4
-71.052523 42.349479 -6.1
-71.052470 42.349551 -6.1
-71.052362 42.349701 -6.1
-71.053678 42.348565 -6.1
-71.052653 42.350051 -6.4
-71.053853 42.348159 -6.4
-71.053684 42.348390 -6.4
-71.053737 42.348309 -6.4
-71.053789 42.348237 -6.4
-71.053581 42.348190 -6.4
-71.053912 42.348079 -6.4
-71.053695 42.348023 -6.4
-71.053964 42.348009 -6.4
-71.053731 42.347951 -6.4
-71.053256 42.348609 -6.1
-71.054017 42.347931 -6.4
-71.054081 42.347859 -6.4
-71.054142 42.347795 -6.4
-71.053356 42.348970 -5.8
-71.053445 42.348873 -6.1
-71.053056 42.348831 -6.1
-71.053514 42.348765 -6.1
-71.053131 42.348751 -6.1
-71.052873 42.349054 -6.1
-71.052995 42.348901 -6.1
-71.053276 42.348912 -6.1
-71.053226 42.348984 -6.1
-71.052931 42.348973 -6.1
-71.053181 42.349062 -6.1
-71.052795 42.349129 -6.1
-71.053281 42.349073 -6.1
-71.053964 42.349356 -1.2
-71.054017 42.349267 -1.5
-71.054712 42.347854 -2.4
-71.054653 42.347945 -2.4
-71.053767 42.349634 -1.5
-71.053812 42.349551 -1.5
-71.053501 42.350067 -1.5
-71.054156 42.348792 -2.1
-71.054087 42.348698 -2.1
-71.054428 42.348215 -2.4
-71.054048 42.348915 -2.1
-71.054239 42.348487 -2.4
-71.054306 42.348406 -2.4
-71.054370 42.348312 -2.4
-71.054095 42.349162 -1.2
-71.054148 42.349067 -1.2
-71.053567 42.349559 -2.4
-71.053973 42.349029 -2.4
-71.054209 42.348976 -1.2
-71.054267 42.348879 -1.2
-71.053656 42.349806 -1.8
-71.053117 42.350042 -2.4
-71.053239 42.350006 -2.4
-71.053631 42.349851 -2.1
-71.053278 42.349948 -2.4
-71.053570 42.349954 -2.1
-71.053695 42.349748 -2.4
-71.054017 42.348792 -2.4
-71.054167 42.348595 -2.4
-71.054331 42.348562 -0.9
-71.054967 42.347879 -1.2
-71.054906 42.347973 -1.2
-71.055037 42.347790 -1.2
-71.054217 42.348687 -1.8
-71.054406 42.348454 -1.8
-71.053909 42.349445 -1.2
-71.052642 42.349637 -7.0
-71.052376 42.350015 -6.7
-71.052784 42.349598 -7.0
-71.052442 42.349931 -6.7
-71.053667 42.348092 -6.7
-71.052514 42.349826 -6.7
-71.053748 42.348090 -6.7
-71.052526 42.349984 -7.3
-71.054137 42.347612 -7.0
-71.053973 42.347806 -7.0
-71.054048 42.347709 -7.0
-71.053892 42.347887 -6.7
-71.053781 42.347870 -6.7
-71.054103 42.347509 -6.7
-71.052459 42.350062 -7.3
-71.053817 42.348006 -7.0
-71.052689 42.349517 -7.0
-71.052745 42.349426 -7.0
-71.052812 42.349717 -7.0
-71.052731 42.349690 -7.0
-71.052301 42.350087 -6.7
-71.052695 42.349770 -7.0
-71.054020 42.347576 -6.7
-71.052581 42.349909 -7.0
-71.052639 42.349834 -7.0
-71.052884 42.349454 -6.7
-71.054437 42.347373 -6.7
-71.053048 42.349392 -6.7
-71.052948 42.349362 -6.7
-71.053145 42.348879 -6.7
-71.052903 42.349590 -6.7
-71.052848 42.349526 -6.7
-71.052573 42.349729 -6.7
-71.053848 42.347790 -6.7
-71.054217 42.347523 -7.0
-71.054342 42.347506 -7.0
-71.054298 42.347576 -6.7
-71.054187 42.347720 -6.7
-71.053723 42.347698 -6.7
-71.054226 42.347654 -6.7
-71.053956 42.347648 -6.7
-71.054278 42.347431 -7.0
-71.054212 42.347362 -7.0
-71.054148 42.347440 -7.0
-71.054395 42.347440 -7.0
-71.053906 42.347726 -6.7
-71.054345 42.348784 -0.6
-71.054395 42.348684 -0.6
-71.053742 42.348626 -5.6
-71.054709 42.347504 -5.6
-71.054776 42.347406 -5.6
-71.053914 42.347437 -7.6
-71.054001 42.347348 -7.9
-71.053787 42.347609 -7.9
-71.053870 42.347512 -7.9
-71.055089 42.347692 -1.2
-71.055326 42.347337 -1.2
-71.055151 42.347606 -1.2
-71.055220 42.347509 -1.5
-71.055270 42.347429 -1.5
-71.055064 42.347379 -2.7
-71.009594 42.350362 0.0
-71.010436 42.350567 0.0
-71.010147 42.350506 0.0
-71.009630 42.350162 -0.3
-71.010194 42.350101 -0.6
-71.010444 42.350362 -0.3
-71.010172 42.350301 -0.3
-71.010469 42.350165 -0.6
-71.009288 42.350148 0.0
-71.009197 42.350165 0.0
-71.010130 42.350695 0.3
-71.010402 42.350776 0.3
-71.009161 42.350340 0.3
-71.009538 42.350531 0.3
-71.011377 42.350815 0.3
-71.010763 42.350781 0.3
-71.010894 42.350367 -0.6
-71.010966 42.350170 -0.6
-71.011491 42.350381 -0.6
-71.012719 42.350892 -0.6
-71.012300 42.350742 0.0
-71.011886 42.350670 0.0
-71.011430 42.350592 0.0
-71.010825 42.350562 0.0
-71.011847 42.350795 0.0
-71.012269 42.350926 0.0
-71.012072 42.350192 -1.5
-71.012383 42.350340 -1.5
-71.013158 42.350329 -1.8
-71.012375 42.350192 -1.5
-71.012388 42.350490 -1.5
-71.012877 42.350459 -1.5
-71.012797 42.350612 -1.5
-71.013041 42.350937 -1.5
-71.012758 42.350767 -1.5
-71.013322 42.351170 -1.5
-71.011916 42.350512 -0.9
-71.012013 42.350304 -1.2
-71.012313 42.350562 -0.9
-71.012894 42.350181 -1.8
-71.013061 42.350270 -1.8
-71.013080 42.350640 -1.8
-71.011497 42.350245 -0.9
-71.013433 42.350820 -1.8
-71.014297 42.352695 -0.9
-71.013627 42.350317 -1.8
-71.014361 42.352581 -2.1
-71.014636 42.351792 -1.5
-71.013538 42.350590 -1.8
-71.013791 42.350459 -1.8
-71.013430 42.350395 -1.8
-71.013852 42.350223 -6.7
-71.013691 42.350151 -6.4
-71.013652 42.351104 -5.5
-71.014263 42.352865 -0.3
-71.015797 42.352801 -11.1
-71.015738 42.351390 -12.5
-71.014486 42.352237 -12.2
-71.014522 42.352104 -11.6
-71.015063 42.352040 -12.2
-71.015705 42.350262 -12.2
-71.014875 42.352584 -11.9
-71.016052 42.351673 -11.9
-71.014947 42.352401 -11.9
-71.014822 42.352729 -11.6
-71.015544 42.350809 -12.2
-71.015658 42.350445 -11.9
-71.015838 42.351529 -11.9
-71.015577 42.350637 -11.9
-71.014608 42.351954 -11.6
-71.015847 42.351165 -12.8
-71.015113 42.352734 -11.3
-71.015252 42.352387 -11.3
-71.015311 42.350837 -11.6
-71.015000 42.352223 -11.3
-71.015422 42.350995 -11.6
-71.014666 42.351631 -8.2
-71.014458 42.352398 -7.6
-71.014366 42.350140 -9.8
-71.015097 42.350317 -9.8
-71.015005 42.350654 -9.8
-71.015977 42.352456 -9.8
-71.015325 42.351340 -9.8
-71.015380 42.352156 -9.8
-71.015391 42.351184 -9.1
-71.014325 42.350284 -9.1
-71.013719 42.350773 -9.1
-71.015044 42.352867 -8.5
-71.014200 42.350809 -9.1
-71.014786 42.350159 -8.8
-71.014622 42.350159 -8.8
-71.014272 42.350537 -8.8
-71.014580 42.350290 -9.1
-71.014936 42.350970 -9.1
-71.014975 42.350854 -8.8
-71.014516 42.350442 -8.8
-71.015588 42.351704 -9.4
-71.015650 42.351548 -9.4
-71.015594 42.351248 -9.4
-71.016002 42.350851 -10.7
-71.015244 42.351512 -10.1
-71.014863 42.351162 -10.1
-71.014813 42.351312 -10.1
-71.015488 42.351887 -10.1
-71.016155 42.352120 -10.4
-71.014755 42.351456 -10.4
-71.015122 42.351881 -10.4
-71.016050 42.352281 -10.4
-71.014950 42.350387 -10.4
-71.016091 42.350642 -10.4
-71.015186 42.351692 -10.4
-71.015916 42.351001 -11.0
-71.015875 42.352631 -11.0
-71.015186 42.352559 -11.0
-71.016005 42.353492 -11.0
-71.015588 42.354479 -11.0
-71.015797 42.353981 -11.0
-71.016052 42.353317 -11.0
-71.015930 42.353645 -10.7
-71.015530 42.354642 -10.7
-71.016147 42.353181 -10.7
-71.015736 42.354162 -10.7
-71.014658 42.353301 -9.1
-71.015411 42.354992 -9.8
-71.015461 42.354815 -11.3
-71.015652 42.354329 -11.3
-71.015700 42.352959 -11.3
-71.015541 42.353281 -11.3
-71.015597 42.353131 -11.3
-71.015855 42.353817 -11.3
-71.014011 42.353556 -0.3
-71.014247 42.352954 -0.6
-71.014194 42.353112 -0.6
-71.014075 42.353420 -0.6
-71.014130 42.353287 -0.6
-71.014569 42.353456 -7.0
-71.016136 42.354970 -7.0
-71.014716 42.353129 -1.2
-71.014797 42.352934 -1.2
-71.014475 42.353845 -0.9
-71.016066 42.355104 -1.2
-71.014947 42.352973 -1.8
-71.014530 42.353640 -5.2
-71.014947 42.353126 -4.9
-71.018508 42.352654 -4.0
-71.018880 42.352604 -4.0
-71.018830 42.352765 -3.7
-71.018608 42.352429 -3.4
-71.018844 42.351840 -4.0
-71.018008 42.352770 -3.0
-71.018044 42.352606 -3.0
-71.018772 42.352037 -3.0
-71.018880 42.350481 -4.0
-71.018580 42.350237 -3.7
-71.018902 42.350176 -4.6
-71.017625 42.352604 -4.3
-71.018255 42.352570 -3.7
-71.018852 42.352395 -3.7
-71.018775 42.350298 -4.0
-71.018300 42.350198 -4.0
-71.018505 42.352267 -2.7
-71.018677 42.352215 -2.7
-71.018308 42.352209 -2.1
-71.017969 42.352484 -2.1
-71.018105 42.352431 -2.4
-71.018319 42.352001 -6.1
-71.017472 42.351137 -11.6
-71.017866 42.351187 -11.3
-71.017791 42.350842 -11.6
-71.017030 42.351242 -11.3
-71.016466 42.351506 -11.3
-71.016941 42.351401 -11.6
-71.017897 42.351023 -11.3
-71.017483 42.350984 -11.6
-71.017980 42.350848 -11.3
-71.016366 42.350145 -11.6
-71.017705 42.351009 -11.6
-71.016891 42.350601 -11.6
-71.017330 42.350562 -11.6
-71.016172 42.350490 -11.6
-71.017105 42.351979 -11.3
-71.017241 42.351690 -11.6
-71.017013 42.350284 -11.3
-71.016983 42.352106 -11.9
-71.016280 42.350309 -11.9
-71.016955 42.350437 -11.9
-71.017180 42.351851 -11.9
-71.016691 42.351120 -12.2
-71.016436 42.351629 -11.9
-71.017122 42.351042 -12.2
-71.016577 42.351306 -12.2
-71.017258 42.350712 -11.9
-71.016752 42.350954 -11.9
-71.017191 42.350898 -11.9
-71.017552 42.350779 -11.9
-71.016819 42.350790 -11.9
-71.016805 42.351690 -11.9
-71.017794 42.351354 -11.1
-71.017511 42.351265 -11.1
-71.017486 42.351495 -11.1
-71.017141 42.352367 -9.8
-71.017838 42.352151 -9.8
-71.017927 42.351970 -9.8
-71.016677 42.352126 -9.8
-71.018083 42.350687 -9.8
-71.017777 42.350165 -8.8
-71.017980 42.350295 -8.8
-71.017808 42.350426 -9.1
-71.018222 42.350345 -9.1
-71.017491 42.350240 -9.1
-71.017716 42.350620 -9.4
-71.016925 42.352598 -9.4
-71.016669 42.351970 -9.4
-71.017316 42.352379 -9.4
-71.017227 42.352545 -9.4
-71.017383 42.352481 -9.4
-71.018158 42.350512 -9.4
-71.017886 42.350595 -9.4
-71.018194 42.352281 -7.6
-71.018769 42.351037 -10.7
-71.018211 42.351454 -10.7
-71.017213 42.352159 -10.7
-71.018361 42.350734 -10.7
-71.018502 42.351601 -10.7
-71.018438 42.351779 -10.7
-71.016730 42.351812 -10.7
-71.018383 42.351284 -10.7
-71.018638 42.350720 -10.7
-71.016280 42.352845 -11.0
-71.017705 42.351537 -11.0
-71.018263 42.350873 -11.0
-71.017541 42.351865 -11.0
-71.018141 42.351181 -11.0
-71.018847 42.350859 -11.0
-71.018125 42.351606 -11.0
-71.016866 42.351567 -11.0
-71.018500 42.350890 -11.0
-71.017738 42.352354 -11.0
-71.017627 42.351684 -11.0
-71.018180 42.351026 -11.0
-71.018866 42.350704 -11.0
-71.018655 42.351379 -10.4
-71.016363 42.352654 -10.4
-71.018441 42.351065 -10.4
-71.017411 42.350381 -10.4
-71.018688 42.351256 -10.4
-71.017480 42.352262 -10.4
-71.017461 42.352034 -10.1
-71.016869 42.352409 -10.1
-71.016255 42.351970 -10.1
