-70.445569 42.983701 -97.5
-70.437209 42.983826 -101.8
-70.447638 42.983846 -98.1
-70.439240 42.983860 -101.2
-70.441593 42.983865 -99.7
-70.435004 42.983896 -102.4
-70.442983 42.985240 -99.7
-70.443872 42.986287 -99.7
-70.446199 42.986429 -99.1
-70.448494 42.986443 -98.5
-70.439137 42.986490 -100.9
-70.441416 42.986493 -100.6
-70.437043 42.986512 -101.5
-70.435498 42.986524 -101.8
-70.434054 42.986562 -120.1
-70.442780 42.987815 -100.0
-70.447427 42.987851 -99.4
-70.444960 42.987893 -99.7
-70.438433 42.987935 -100.6
-70.435801 42.987974 -101.2
-70.440488 42.987976 -100.6
-70.433896 42.988087 -101.5
-70.449474 42.989162 -97.5
-70.436143 42.989215 -99.7
-70.433901 42.989257 -100.3
-70.442685 42.989257 -98.8
-70.438374 42.989276 -99.4
-70.447294 42.989287 -97.8
-70.445027 42.989337 -98.5
-70.440616 42.989346 -99.4
-70.437022 42.991162 -97.8
-70.445444 42.991193 -94.8
-70.447674 42.991199 -94.8
-70.443127 42.991260 -95.7
-70.435066 42.991276 -99.1
-70.438505 42.991279 -97.2
-70.440885 42.991349 -96.6
-70.448972 42.991471 -95.4
-70.449285 42.992351 -93.3
-70.456008 42.983554 -93.9
-70.454138 42.983604 -94.5
-70.451872 42.983654 -95.7
-70.460394 42.983710 -93.9
-70.449755 42.983721 -96.3
-70.464391 42.983721 -94.2
-70.458124 42.983724 -93.9
-70.462199 42.983790 -93.9
-70.463902 42.986360 -94.2
-70.453463 42.986407 -96.0
-70.459258 42.986415 -95.1
-70.461535 42.986418 -94.5
-70.457935 42.986454 -94.8
-70.466033 42.986465 -93.9
-70.450985 42.986504 -96.9
-70.455733 42.986512 -95.4
-70.454291 42.987749 -96.9
-70.456508 42.987771 -96.9
-70.458702 42.987812 -96.0
-70.460769 42.987854 -95.7
-70.463060 42.987876 -95.4
-70.465305 42.987882 -95.1
-70.449594 42.987940 -98.8
-70.452024 42.987946 -97.8
-70.460238 42.989068 -95.4
-70.462444 42.989074 -94.8
-70.458083 42.989110 -95.7
-70.455691 42.989124 -96.3
-70.453685 42.989126 -96.3
-70.464585 42.989143 -94.8
-70.451419 42.989243 -96.9
-70.450852 42.991062 -95.7
-70.455210 42.991082 -94.8
-70.453083 42.991085 -95.1
-70.457616 42.991140 -95.1
-70.459835 42.991293 -94.8
-70.462016 42.991315 -94.5
-70.464508 42.991485 -94.2
-70.451191 42.992146 -95.4
-70.453010 42.992537 -93.9
-70.453947 42.993004 -93.6
-70.474816 42.983429 -94.5
-70.476849 42.983454 -95.1
-70.481072 42.983454 -97.5
-70.479177 42.983457 -95.7
-70.466435 42.983615 -93.0
-70.472524 42.983710 -93.6
-70.470533 42.983771 -93.6
-70.468352 42.983785 -93.6
-70.471213 42.986462 -93.9
-70.481147 42.986468 -95.4
-70.468760 42.986476 -93.6
-70.478716 42.986518 -95.4
-70.476163 42.986524 -95.4
-70.473719 42.986540 -94.2
-70.472141 42.987921 -95.1
-70.476641 42.987929 -95.1
-70.479022 42.987935 -95.1
-70.469774 42.987946 -95.1
-70.467630 42.987949 -95.1
-70.474349 42.987954 -95.1
-70.482797 42.987962 -93.6
-70.481141 42.987985 -95.1
-70.466877 42.989257 -94.5
-70.471063 42.989257 -94.5
-70.469094 42.989268 -94.5
-70.474391 42.989312 -94.2
-70.472247 42.989318 -94.2
-70.477805 42.989343 -94.5
-70.479774 42.989349 -95.1
-70.475513 42.989440 -94.2
-70.481908 42.989546 -94.2
-70.477788 42.991385 -93.9
-70.475694 42.991387 -93.9
-70.482199 42.991410 -81.4
-70.473427 42.991412 -93.9
-70.480019 42.991415 -77.7
-70.468816 42.991421 -93.9
-70.466438 42.991537 -93.9
-70.471047 42.991562 -93.9
-70.483577 42.983437 -97.2
-70.485894 42.983471 -95.1
-70.493111 42.983646 -89.9
-70.487938 42.983649 -93.6
-70.496675 42.983676 -88.4
-70.489922 42.983718 -91.7
-70.491205 42.983771 -89.9
-70.498795 42.983910 -89.0
-70.495248 42.984643 -87.2
-70.495714 42.986399 -87.2
-70.483677 42.986562 -94.8
-70.492689 42.986599 -88.7
-70.489934 42.986632 -89.6
-70.487827 42.986674 -93.6
-70.486283 42.986768 -92.4
-70.497161 42.986771 -87.8
-70.490464 42.987990 -86.6
-70.494875 42.987990 -89.6
-70.492656 42.988024 -89.0
-70.488731 42.988079 -77.4
-70.496570 42.988079 -87.2
-70.486775 42.988101 -89.6
-70.497706 42.988240 -89.0
-70.484135 42.989376 -91.7
-70.491192 42.989451 -86.6
-70.486395 42.989499 -77.1
-70.488800 42.989512 -72.5
-70.496550 42.989549 -86.3
-70.498609 42.989626 -88.4
-70.493848 42.989649 -88.1
-70.497403 42.990429 -87.2
-70.484706 42.991524 -75.6
-70.487261 42.991565 -72.2
-70.491611 42.991712 -89.3
-70.493867 42.991735 -88.1
-70.489545 42.991743 -84.4
-70.498131 42.991771 -87.2
-70.496100 42.991785 -87.5
-70.503346 42.837591 -113.4
-70.501291 42.837616 -113.4
-70.505363 42.837658 -112.5
-70.509436 42.837758 -112.8
-70.507370 42.837763 -112.8
-70.515564 42.837783 -111.3
-70.511653 42.837816 -112.2
-70.513670 42.837855 -111.6
-70.513083 42.842916 -110.0
-70.510892 42.842977 -110.6
-70.515325 42.842986 -110.0
-70.508711 42.842994 -110.3
-70.506322 42.843063 -110.9
-70.501900 42.843075 -111.6
-70.504253 42.843088 -111.3
-70.499519 42.843191 -112.5
-70.504964 42.847380 -108.5
-70.508128 42.847597 -107.9
-70.506222 42.847602 -108.5
-70.510083 42.847663 -107.0
-70.513831 42.847808 -106.4
-70.515947 42.847883 -106.1
-70.511950 42.847886 -106.4
-70.501572 42.848983 -108.5
-70.499642 42.849008 -110.0
-70.503553 42.849133 -108.2
-70.505770 42.849227 -107.6
-70.507997 42.849619 -106.4
-70.512095 42.849744 -105.2
-70.509928 42.849750 -105.5
-70.514336 42.849938 -104.5
-70.531658 42.835150 -112.2
-70.531856 42.836344 -111.9
-70.527220 42.837744 -111.6
-70.522972 42.837777 -111.6
-70.525053 42.837797 -111.6
-70.531253 42.837805 -110.6
-70.529300 42.837830 -110.9
-70.521067 42.837847 -111.6
-70.516895 42.837905 -111.9
-70.518950 42.837908 -111.6
-70.532047 42.838891 -109.7
-70.532395 42.840544 -108.5
-70.532800 42.842411 -106.4
-70.525975 42.842725 -108.8
-70.530395 42.842738 -107.9
-70.523981 42.842758 -109.4
-70.528328 42.842763 -108.2
-70.521828 42.842783 -109.7
-70.519611 42.842880 -110.0
-70.517417 42.842941 -110.0
-70.529586 42.847563 -98.5
-70.532178 42.847658 -101.2
-70.527706 42.847752 -102.4
-70.523645 42.847783 -104.2
-70.525664 42.847852 -104.5
-70.517953 42.847941 -104.9
-70.519883 42.848027 -104.2
-70.521789 42.848058 -104.2
-70.533297 42.837577 -110.3
-70.539433 42.837716 -108.5
-70.535275 42.837719 -110.0
-70.541128 42.837727 -108.5
-70.537428 42.837758 -109.1
-70.548573 42.837763 -106.7
-70.544514 42.837777 -108.2
-70.546531 42.837777 -107.6
-70.542633 42.837791 -108.5
-70.541117 42.842633 -104.5
-70.536931 42.842655 -105.8
-70.538986 42.842677 -105.2
-70.534653 42.842727 -106.4
-70.543408 42.842802 -103.9
-70.545301 42.842822 -103.3
-70.547579 42.842916 -103.0
-70.532870 42.844230 -104.9
-70.533003 42.846022 -103.0
-70.533720 42.847861 -102.1
-70.535900 42.847938 -96.6
-70.537567 42.848161 -89.6
-70.539698 42.848247 -99.4
-70.541218 42.848458 -99.4
-70.543009 42.848636 -99.4
-70.545001 42.848813 -99.4
-70.546946 42.848961 -99.1
-70.548876 42.849018 -97.8
-70.533517 42.849680 -100.3
-70.562765 42.834055 -102.7
-70.562648 42.835811 -102.4
-70.562634 42.837427 -101.5
-70.550529 42.837847 -105.5
-70.552546 42.837850 -104.9
-70.556507 42.837927 -103.0
-70.554476 42.837936 -103.6
-70.560765 42.837941 -101.5
-70.558523 42.837958 -102.1
-70.565621 42.838026 -99.4
-70.563640 42.838110 -100.6
-70.562307 42.839412 -100.6
-70.562240 42.841157 -98.8
-70.549884 42.842966 -102.7
-70.551815 42.843022 -102.1
-70.554032 42.843025 -101.5
-70.562151 42.843107 -98.5
-70.556198 42.843229 -100.6
-70.558251 42.843240 -99.7
-70.560368 42.843268 -98.5
-70.563582 42.843326 -98.5
-70.564951 42.843401 -98.5
-70.561984 42.844843 -97.8
-70.562107 42.846532 -96.3
-70.562115 42.848112 -96.3
-70.557021 42.848907 -96.3
-70.555140 42.848960 -96.6
-70.553059 42.849032 -96.6
-70.550968 42.849040 -97.2
-70.563646 42.849051 -95.1
-70.565576 42.849054 -94.5
-70.558265 42.849065 -96.3
-70.559873 42.849096 -96.0
-70.561654 42.849151 -95.7
-70.562026 42.850062 -95.1
-70.570976 42.835096 -97.8
-70.578818 42.835193 -95.1
-70.576515 42.835210 -95.7
-70.581157 42.835224 -93.9
-70.574309 42.835226 -96.3
-70.572157 42.835410 -97.5
-70.571593 42.837887 -96.9
-70.576459 42.837921 -95.4
-70.582546 42.837982 -93.3
-70.574543 42.837985 -96.0
-70.578426 42.838051 -94.2
-70.567646 42.838068 -98.8
-70.572537 42.838074 -96.9
-70.580593 42.838107 -93.9
-70.569587 42.838115 -97.5
-70.582293 42.841271 -93.3
-70.570143 42.841276 -96.6
-70.571959 42.841307 -96.3
-70.573915 42.841326 -95.7
-70.575846 42.841329 -95.1
-70.578009 42.841332 -94.5
-70.580040 42.841487 -93.6
-70.569232 42.843235 -96.6
-70.567001 42.843260 -97.5
-70.575854 42.843443 -94.5
-70.571421 42.843449 -96.0
-70.573673 42.843460 -95.4
-70.577782 42.843482 -93.9
-70.579948 42.843601 -92.4
-70.579584 42.845743 -92.0
-70.581837 42.845754 -91.7
-70.577243 42.845824 -93.0
-70.572937 42.845857 -94.2
-70.570857 42.845874 -95.7
-70.575251 42.845896 -93.6
-70.581685 42.848968 -90.8
-70.575596 42.848974 -92.0
-70.577562 42.848974 -92.0
-70.579529 42.848985 -91.7
-70.567590 42.849012 -93.9
-70.569557 42.849032 -93.9
-70.571623 42.849079 -93.3
-70.573540 42.849110 -92.7
-70.598983 42.834596 -88.4
-70.594502 42.834657 -90.2
-70.596844 42.834721 -89.6
-70.592209 42.834837 -90.8
-70.590021 42.834854 -92.0
-70.585612 42.835007 -93.0
-70.587818 42.835010 -92.4
-70.583187 42.835162 -93.9
-70.594374 42.837715 -89.6
-70.598233 42.837726 -88.7
-70.592222 42.837751 -90.5
-70.596252 42.837754 -89.0
-70.590401 42.837860 -91.1
-70.588609 42.837960 -91.7
-70.584612 42.838029 -93.0
-70.586543 42.838040 -92.4
-70.599188 42.840401 -88.4
-70.597208 42.840482 -89.0
-70.595030 42.840518 -89.6
-70.590710 42.840651 -90.8
-70.592802 42.840682 -90.2
-70.586462 42.841007 -91.7
-70.588830 42.841010 -91.4
-70.584309 42.841171 -92.7
-70.598388 42.843468 -87.2
-70.586072 42.845546 -90.8
-70.588077 42.845657 -89.9
-70.583904 42.845710 -91.1
-70.592383 42.845818 -89.0
-70.590291 42.845851 -89.6
-70.594660 42.845910 -88.4
-70.596816 42.846004 -87.8
-70.599144 42.846162 -86.9
-70.589988 42.848690 -88.7
-70.596116 42.848696 -87.2
-70.593874 42.848704 -87.5
-70.598205 42.848715 -86.6
-70.591869 42.848721 -88.4
-70.585880 42.848771 -89.9
-70.588047 42.848782 -89.3
-70.583838 42.848879 -90.5
-70.605738 42.834696 -86.9
-70.601497 42.834701 -88.4
-70.603724 42.834701 -87.5
-70.607905 42.834751 -86.3
-70.609908 42.834937 -85.3
-70.612260 42.835021 -84.7
-70.614299 42.835096 -84.1
-70.602702 42.835904 -87.8
-70.606022 42.837671 -85.0
-70.609905 42.837674 -84.1
-70.600113 42.837682 -88.4
-70.603944 42.837687 -86.3
-70.602027 42.837715 -87.2
-70.608049 42.837718 -85.0
-70.613985 42.837721 -82.9
-70.612008 42.837776 -83.8
-70.616038 42.837807 -82.6
-70.601366 42.838882 -87.5
-70.607438 42.840071 -85.6
-70.609516 42.840071 -85.0
-70.611383 42.840118 -84.1
-70.613672 42.840129 -83.5
-70.603194 42.840187 -86.9
-70.605247 42.840224 -86.3
-70.615663 42.840240 -82.9
-70.601191 42.840396 -87.8
-70.600244 42.841921 -87.8
-70.600591 42.843390 -86.6
-70.600177 42.844787 -86.6
-70.601283 42.846054 -86.0
-70.610208 42.846107 -83.5
-70.605863 42.846160 -84.4
-70.603510 42.846168 -85.3
-70.608041 42.846226 -81.1
-70.612322 42.846265 -78.6
-70.614574 42.846301 -81.7
-70.600224 42.847149 -86.6
-70.600224 42.847204 -86.6
-70.602413 42.848565 -85.0
-70.608385 42.848568 -82.9
-70.610402 42.848568 -82.3
-70.604366 42.848574 -84.7
-70.606322 42.848585 -83.8
-70.612569 42.848682 -82.0
-70.614647 42.848774 -80.5
-70.600222 42.848782 -85.6
-70.616491 42.835143 -83.2
-70.618480 42.835271 -82.6
-70.620783 42.835429 -82.0
-70.622935 42.835485 -81.4
-70.629280 42.835515 -79.6
-70.627352 42.835532 -79.9
-70.631619 42.835543 -78.6
-70.625224 42.835551 -80.5
-70.631508 42.837601 -78.0
-70.629641 42.837646 -78.6
-70.623780 42.837699 -80.5
-70.617880 42.837715 -82.3
-70.625533 42.837718 -80.2
-70.619947 42.837735 -81.7
-70.627785 42.837749 -79.6
-70.622024 42.837810 -81.1
-70.617816 42.840232 -82.3
-70.619933 42.840307 -82.0
-70.621774 42.840437 -81.4
-70.623974 42.840629 -80.5
-70.626127 42.840660 -79.9
-70.628294 42.840696 -79.2
-70.632564 42.840715 -78.9
-70.630285 42.840807 -79.2
-70.630817 42.845760 -68.6
-70.628614 42.845768 -78.9
-70.626585 42.845940 -79.6
-70.624219 42.845949 -77.7
-70.620985 42.846049 -76.5
-70.619019 42.846176 -81.7
-70.616877 42.846285 -81.1
-70.626945 42.848512 -78.0
-70.622960 42.848529 -79.6
-70.628936 42.848532 -77.7
-70.620869 42.848537 -79.6
-70.624877 42.848560 -79.2
-70.630653 42.848571 -77.1
-70.632309 42.848579 -77.4
-70.618741 42.848621 -79.6
-70.616663 42.848674 -80.5
-70.648831 42.835154 -71.6
-70.646509 42.835174 -72.2
-70.642267 42.835354 -74.7
-70.644325 42.835365 -73.2
-70.640220 42.835374 -75.9
-70.637875 42.835399 -76.5
-70.635703 42.835410 -77.4
-70.633533 42.835462 -78.0
-70.633419 42.837557 -77.4
-70.635292 42.837604 -76.8
-70.639334 42.837687 -74.7
-70.641256 42.837687 -73.8
-70.637436 42.837704 -75.9
-70.643389 42.837735 -72.5
-70.645311 42.837762 -71.9
-70.647195 42.837790 -71.3
-70.649303 42.837801 -70.4
-70.634453 42.840801 -78.3
-70.636486 42.840874 -77.4
-70.648253 42.840907 -72.2
-70.640828 42.840912 -75.0
-70.638595 42.840921 -76.2
-70.642886 42.840987 -73.8
-70.646031 42.840987 -71.9
-70.637373 42.842474 -78.3
-70.639606 42.842501 -76.2
-70.645756 42.842512 -73.8
-70.643761 42.842529 -73.8
-70.641675 42.842585 -75.6
-70.648214 42.842615 -72.5
-70.635211 42.842701 -79.2
-70.633370 42.842746 -79.9
-70.647828 42.845268 -72.5
-70.645145 42.845415 -68.3
-70.643009 42.845443 -71.9
-70.641461 42.845468 -69.2
-70.639217 42.845560 -65.8
-70.635036 42.845604 -58.5
-70.637109 42.845651 -61.0
-70.633056 42.845768 -62.5
-70.637417 42.848335 -70.4
-70.639053 42.848362 -61.9
-70.640575 42.848362 -64.0
-70.644381 42.848410 -57.0
-70.642484 42.848437 -61.6
-70.646528 42.848437 -70.4
-70.648686 42.848474 -73.2
-70.635345 42.848499 -69.5
-70.633761 42.848554 -76.5
-70.664500 42.833890 -64.3
-70.659448 42.834854 -67.1
-70.661645 42.834882 -66.1
-70.657425 42.834918 -68.6
-70.663764 42.834937 -65.2
-70.655267 42.835121 -69.2
-70.653134 42.835146 -69.8
-70.650925 42.835201 -70.7
-70.657289 42.837682 -66.8
-70.663178 42.837804 -64.9
-70.653220 42.837821 -69.2
-70.661181 42.837832 -65.5
-70.655106 42.837865 -68.0
-70.659298 42.837868 -66.1
-70.665098 42.837887 -63.7
-70.651200 42.837921 -70.1
-70.660681 42.840787 -66.1
-70.664225 42.840818 -64.0
-70.662267 42.840826 -63.4
-70.652645 42.840832 -69.8
-70.659059 42.840843 -67.4
-70.656789 42.840879 -64.9
-70.650286 42.840924 -71.0
-70.654728 42.840954 -68.9
-70.650248 42.842579 -71.3
-70.652495 42.842643 -70.1
-70.654667 42.842810 -69.2
-70.656861 42.842965 -68.3
-70.661231 42.843012 -66.8
-70.659070 42.843040 -67.1
-70.663425 42.843160 -64.9
-70.665584 42.843343 -63.7
-70.650148 42.845435 -71.6
-70.652331 42.845462 -70.4
-70.654553 42.845546 -69.5
-70.656911 42.845546 -68.6
-70.658984 42.845593 -67.1
-70.663600 42.845621 -64.3
-70.661278 42.845649 -65.5
-70.665870 42.845657 -62.8
-70.652992 42.848282 -70.1
-70.655114 42.848329 -69.2
-70.656948 42.848376 -68.0
-70.659056 42.848376 -67.1
-70.661167 42.848385 -66.1
-70.663486 42.848385 -61.0
-70.650684 42.848457 -71.3
-70.665134 42.848496 -62.5
-70.515864 42.851438 -102.7
-70.512303 42.851508 -103.0
-70.513697 42.851511 -102.7
-70.500592 42.851536 -107.0
-70.508950 42.851577 -103.6
-70.510595 42.851580 -103.0
-70.504989 42.851588 -105.5
-70.507206 42.851611 -104.2
-70.502747 42.851669 -106.7
-70.514525 42.853744 -100.9
-70.512108 42.853841 -101.2
-70.509942 42.853866 -101.5
-70.500325 42.853869 -104.5
-70.507239 42.853872 -102.4
-70.502778 42.853938 -103.6
-70.505070 42.853950 -103.0
-70.506847 42.855994 -100.9
-70.505064 42.856000 -100.9
-70.508589 42.856025 -100.9
-70.510820 42.856119 -98.8
-70.512764 42.856166 -98.8
-70.514706 42.856272 -98.5
-70.504022 42.859105 -100.9
-70.501506 42.859155 -101.5
-70.506103 42.859216 -100.3
-70.510550 42.859233 -99.7
-70.508381 42.859302 -100.0
-70.512731 42.859338 -99.1
-70.514847 42.859341 -98.8
-70.512089 42.860861 -100.0
-70.514228 42.862372 -98.1
-70.500756 42.864152 -101.5
-70.502986 42.864294 -100.9
-70.505228 42.864427 -100.6
-70.507222 42.864566 -100.0
-70.509464 42.864580 -99.7
-70.511520 42.864611 -99.1
-70.513564 42.864633 -98.1
-70.515942 42.864636 -97.5
-70.516578 42.850127 -104.5
-70.521845 42.850291 -103.0
-70.518445 42.850305 -103.9
-70.519953 42.850452 -103.3
-70.525517 42.851177 -100.0
-70.531795 42.851205 -98.8
-70.527697 42.851280 -98.5
-70.529753 42.851283 -96.3
-70.523611 42.851341 -100.6
-70.522056 42.851355 -100.9
-70.518056 42.851369 -102.4
-70.520275 42.851372 -102.4
-70.524453 42.853463 -98.8
-70.522161 42.853588 -99.4
-70.531467 42.853666 -98.1
-70.526683 42.853677 -98.8
-70.518697 42.853722 -100.0
-70.520181 42.853725 -99.7
-70.529086 42.853727 -98.8
-70.516831 42.853747 -100.6
-70.516836 42.856375 -98.1
-70.519203 42.856433 -97.5
-70.521370 42.856436 -97.5
-70.523500 42.856541 -97.2
-70.525631 42.856544 -97.2
-70.527772 42.856738 -96.9
-70.529978 42.856761 -96.9
-70.532221 42.856791 -96.6
-70.521525 42.859305 -96.3
-70.516989 42.859344 -98.1
-70.519245 42.859347 -97.2
-70.523481 42.859352 -95.4
-70.524789 42.859355 -96.0
-70.526881 42.859358 -95.4
-70.529026 42.859361 -95.4
-70.531143 42.859527 -95.1
-70.524956 42.862166 -95.4
-70.527087 42.862197 -95.1
-70.522850 42.862238 -95.7
-70.531284 42.862238 -93.6
-70.518639 42.862241 -96.9
-70.520570 42.862244 -96.0
-70.529229 42.862247 -94.2
-70.516433 42.862266 -97.5
-70.532443 42.862396 -93.6
-70.524490 42.864611 -95.4
-70.518161 42.864619 -96.6
-70.526109 42.864677 -95.1
-70.520364 42.864697 -96.0
-70.522608 42.864700 -95.4
-70.528151 42.864708 -94.5
-70.532326 42.864757 -92.7
-70.530457 42.864818 -92.7
-70.537201 42.851008 -99.4
-70.535445 42.851044 -100.0
-70.539543 42.851058 -98.1
-70.541534 42.851105 -98.1
-70.543776 42.851108 -97.8
-70.545943 42.851110 -96.6
-70.548062 42.851112 -96.3
-70.533625 42.851380 -99.4
-70.533645 42.852944 -98.5
-70.534879 42.853763 -98.1
-70.536971 42.853783 -97.8
-70.538215 42.853886 -97.5
-70.545190 42.853968 -95.7
-70.540546 42.853972 -96.9
-70.549476 42.853982 -94.2
-70.542848 42.854029 -96.3
-70.547457 42.854051 -95.1
-70.534004 42.854911 -97.8
-70.534223 42.856758 -96.3
-70.536093 42.856788 -96.3
-70.538209 42.856836 -95.7
-70.544473 42.856843 -93.6
-70.540201 42.856846 -95.4
-70.548323 42.856874 -91.7
-70.546257 42.856890 -92.4
-70.542282 42.856904 -93.9
-70.534243 42.858752 -94.5
-70.533209 42.859669 -94.8
-70.535748 42.859690 -94.5
-70.537954 42.859701 -94.5
-70.549365 42.859707 -84.1
-70.547084 42.859757 -83.8
-70.544743 42.859810 -88.4
-70.540182 42.859815 -93.6
-70.542648 42.859882 -91.4
-70.534015 42.860561 -94.2
-70.534123 42.862243 -93.0
-70.543004 42.862279 -84.4
-70.538821 42.862304 -83.8
-70.536465 42.862354 -86.9
-70.545209 42.862374 -82.0
-70.540876 42.862379 -86.9
-70.547390 42.862468 -80.5
-70.533996 42.864062 -88.1
-70.536971 42.864587 -87.8
-70.534879 42.864632 -88.1
-70.539051 42.864646 -85.0
-70.543312 42.864779 -87.2
-70.541107 42.864787 -87.2
-70.545504 42.864801 -83.8
-70.547409 42.864904 -82.0
-70.548754 42.865118 -81.1
-70.533929 42.865918 -89.0
-70.550279 42.851096 -96.0
-70.552507 42.851218 -95.7
-70.554787 42.851221 -95.4
-70.556768 42.851224 -94.8
-70.559034 42.851226 -94.5
-70.561462 42.851401 -94.2
-70.563479 42.851415 -94.2
-70.565234 42.851599 -93.9
-70.564946 42.853879 -93.0
-70.560437 42.853901 -92.7
-70.558593 42.853935 -89.9
-70.562665 42.853996 -92.7
-70.553784 42.854012 -93.6
-70.556101 42.854026 -93.3
-70.551432 42.854057 -93.9
-70.552546 42.856768 -90.5
-70.561676 42.856843 -86.0
-70.554712 42.856846 -90.2
-70.556782 42.856857 -89.9
-70.550604 42.856860 -90.8
-70.558848 42.856896 -87.5
-70.565226 42.856937 -88.7
-70.563096 42.857018 -84.7
-70.561923 42.858607 -84.7
-70.564387 42.859557 -82.9
-70.559876 42.859571 -82.3
-70.557559 42.859585 -83.8
-70.562171 42.859610 -80.5
-70.555218 42.859665 -82.9
-70.551557 42.859762 -81.1
-70.553101 42.859810 -81.4
-70.562043 42.860821 -78.0
-70.549532 42.862415 -82.0
-70.551426 42.862418 -86.6
-70.553618 42.862512 -86.9
-70.555737 42.862615 -86.6
-70.557804 42.862737 -86.9
-70.559871 42.862796 -84.4
-70.561129 42.862796 -81.7
-70.563073 42.862854 -76.5
-70.565104 42.862976 -82.3
-70.562334 42.864368 -79.6
-70.564040 42.864721 -78.9
-70.565773 42.864840 -85.3
-70.558359 42.864843 -83.5
-70.552729 42.864865 -87.2
-70.560540 42.864882 -87.8
-70.554187 42.864904 -83.8
-70.556379 42.864924 -87.2
-70.550834 42.864935 -83.5
-70.562382 42.865518 -85.3
-70.580299 42.851457 -90.8
-70.569254 42.851465 -93.3
-70.567223 42.851474 -93.9
-70.571546 42.851476 -93.0
-70.582266 42.851487 -90.5
-70.575765 42.851499 -92.0
-70.573623 42.851554 -92.7
-70.577871 42.851585 -91.4
-70.580447 42.853221 -90.5
-70.578116 42.853249 -91.1
-70.582785 42.853307 -89.9
-70.575712 42.853329 -92.0
-70.573634 42.853399 -92.4
-70.569387 42.853515 -93.0
-70.571690 42.853546 -93.0
-70.566971 42.853787 -93.0
-70.581360 42.856724 -89.3
-70.579419 42.856749 -90.2
-70.575285 42.856865 -91.1
-70.577402 42.856865 -90.8
-70.571223 42.856907 -90.8
-70.573279 42.856910 -91.4
-70.569393 42.856943 -90.2
-70.567140 42.856949 -90.8
-70.566468 42.859568 -84.7
-70.569837 42.859571 -75.9
-70.568068 42.859624 -78.0
-70.579527 42.859624 -89.9
-70.571171 42.859646 -74.4
-70.581941 42.859646 -88.7
-70.577122 42.859651 -88.4
-70.572738 42.859654 -77.7
-70.574844 42.859693 -81.1
-70.582485 42.862751 -89.0
-70.580133 42.862832 -86.3
-70.575747 42.862929 -86.9
-70.577952 42.862949 -81.7
-70.566387 42.862985 -82.9
-70.573669 42.863018 -86.6
-70.571674 42.863118 -82.0
-70.567601 42.863143 -79.2
-70.569683 42.863190 -75.6
-70.569419 42.864907 -87.2
-70.567226 42.864915 -80.2
-70.571560 42.864918 -85.6
-70.572944 42.864921 -84.1
-70.578447 42.864990 -84.1
-70.577127 42.864999 -87.2
-70.574860 42.865004 -87.2
-70.580513 42.865149 -85.3
-70.584408 42.851451 -89.6
-70.586610 42.851471 -89.3
-70.588727 42.851537 -88.4
-70.590833 42.851540 -87.8
-70.593010 42.851560 -87.8
-70.595152 42.851579 -86.9
-70.597380 42.851646 -86.0
-70.599385 42.851712 -85.3
-70.587069 42.853437 -88.7
-70.584916 42.853454 -89.6
-70.589435 42.853560 -88.1
-70.591699 42.853654 -88.1
-70.593619 42.853729 -87.2
-70.595672 42.853932 -86.6
-70.596941 42.853960 -86.3
-70.599233 42.854126 -86.0
-70.583777 42.856799 -89.0
-70.585744 42.856810 -88.4
-70.597922 42.856810 -85.6
-70.589816 42.856832 -87.2
-70.587860 42.856849 -87.8
-70.593888 42.856918 -85.6
-70.591733 42.856924 -86.6
-70.595941 42.856965 -85.3
-70.584172 42.859637 -88.4
-70.598130 42.859668 -84.7
-70.586249 42.859685 -88.1
-70.588666 42.859687 -87.2
-70.590858 42.859743 -86.9
-70.593585 42.859793 -86.0
-70.595738 42.859812 -85.3
-70.599110 42.862176 -83.8
-70.596994 42.862285 -84.4
-70.592710 42.862365 -85.6
-70.594863 42.862365 -85.3
-70.590766 42.862537 -86.3
-70.588674 42.862626 -86.6
-70.586383 42.862718 -87.8
-70.584402 42.862726 -88.1
-70.587202 42.865143 -87.5
-70.582869 42.865149 -87.8
-70.584772 42.865151 -87.8
-70.593888 42.865185 -86.3
-70.598335 42.865190 -84.4
-70.591685 42.865257 -86.9
-70.589380 42.865265 -87.2
-70.596119 42.865271 -85.3
-70.600594 42.850521 -85.3
-70.608583 42.851435 -82.3
-70.610810 42.851435 -81.7
-70.614855 42.851485 -80.2
-70.604263 42.851487 -84.1
-70.612927 42.851501 -81.1
-70.606305 42.851515 -83.2
-70.601674 42.851521 -84.7
-70.600827 42.852799 -84.7
-70.601285 42.853826 -84.7
-70.603552 42.854104 -84.1
-70.606116 42.854179 -83.5
-70.612774 42.854249 -81.7
-70.608205 42.854282 -82.3
-70.610508 42.854321 -82.0
-70.615013 42.854340 -80.8
-70.601210 42.855296 -84.7
-70.600038 42.856810 -85.0
-70.604458 42.856815 -83.5
-70.602516 42.856840 -83.8
-70.606510 42.856890 -83.2
-70.608613 42.856982 -82.0
-70.613008 42.857021 -81.1
-70.614988 42.857040 -80.2
-70.610855 42.857049 -81.7
-70.601183 42.858218 -84.1
-70.605002 42.859424 -82.6
-70.600283 42.859504 -84.1
-70.602774 42.859532 -83.2
-70.607230 42.859554 -82.3
-70.609458 42.859554 -81.7
-70.611699 42.859612 -80.8
-70.614038 42.859632 -79.9
-70.601302 42.860735 -83.5
-70.614733 42.861790 -79.2
-70.612791 42.861846 -79.6
-70.608758 42.861879 -81.1
-70.610524 42.861926 -80.2
-70.603466 42.862024 -82.9
-70.606319 42.862062 -82.0
-70.601077 42.862176 -83.2
-70.601649 42.863079 -82.9
-70.602047 42.864135 -82.9
-70.602805 42.865174 -82.9
-70.605008 42.865312 -81.7
-70.607247 42.865332 -81.1
-70.611616 42.865382 -79.9
-70.609413 42.865399 -80.5
-70.600052 42.865401 -83.5
-70.613859 42.865437 -79.2
-70.601733 42.866487 -82.6
-70.627278 42.851176 -76.8
-70.625125 42.851232 -77.1
-70.620669 42.851257 -78.6
-70.622735 42.851268 -77.7
-70.629406 42.851326 -76.2
-70.618352 42.851385 -78.9
-70.631373 42.851426 -75.3
-70.616188 42.851549 -80.2
-70.632589 42.854026 -75.9
-70.630375 42.854046 -76.2
-70.628034 42.854118 -76.8
-70.625970 42.854171 -77.4
-70.621475 42.854224 -78.3
-70.623567 42.854226 -78.0
-70.619308 42.854251 -78.9
-70.617155 42.854332 -79.9
-70.625420 42.856726 -77.1
-70.627298 42.856726 -76.5
-70.629339 42.856726 -75.9
-70.631370 42.856729 -75.6
-70.621061 42.856871 -78.6
-70.623128 42.856871 -77.7
-70.619270 42.856887 -79.2
-70.617116 42.857060 -79.2
-70.616230 42.859596 -79.2
-70.618395 42.859607 -78.6
-70.620823 42.859607 -77.7
-70.623114 42.859610 -76.8
-70.629861 42.859612 -74.7
-70.625131 42.859629 -76.2
-70.627384 42.859649 -75.6
-70.631939 42.859660 -74.1
-70.616600 42.861674 -78.3
-70.619117 42.861674 -77.7
-70.621045 42.861693 -77.1
-70.623223 42.861749 -76.5
-70.627495 42.861771 -75.3
-70.625664 42.861787 -75.9
-70.631464 42.861807 -73.8
-70.629673 42.861946 -74.4
-70.631984 42.865335 -74.1
-70.627478 42.865351 -75.3
-70.622973 42.865360 -76.5
-70.625175 42.865360 -75.9
-70.629670 42.865362 -74.7
-70.620595 42.865368 -77.4
-70.618253 42.865412 -78.0
-70.616200 42.865429 -78.3
-70.643717 42.851385 -72.8
-70.645978 42.851387 -72.2
-70.632878 42.851437 -75.0
-70.634809 42.851437 -74.7
-70.648323 42.851443 -71.9
-70.639064 42.851468 -74.1
-70.637042 42.851476 -74.4
-70.641434 42.851504 -73.5
-70.634631 42.853862 -74.7
-70.636928 42.853874 -74.4
-70.643442 42.853885 -72.2
-70.641309 42.853910 -72.8
-70.645689 42.853940 -71.9
-70.639111 42.853965 -73.5
-70.648148 42.854107 -71.0
-70.639223 42.856482 -72.8
-70.641106 42.856537 -72.2
-70.645336 42.856557 -71.3
-70.647184 42.856624 -70.7
-70.649156 42.856640 -70.1
-70.643117 42.856649 -71.9
-70.637211 42.856693 -73.5
-70.633336 42.856721 -74.7
-70.635178 42.856721 -74.4
-70.646084 42.859471 -70.4
-70.648506 42.859471 -69.8
-70.641778 42.859515 -71.6
-70.639656 42.859524 -72.5
-70.644064 42.859543 -71.0
-70.633928 42.859568 -73.5
-70.638084 42.859568 -72.8
-70.636261 42.859624 -72.8
-70.634800 42.861901 -73.2
-70.636898 42.861901 -72.2
-70.640892 42.861949 -71.3
-70.632945 42.861957 -73.8
-70.638906 42.861957 -71.6
-70.642925 42.862040 -71.0
-70.644886 42.862079 -69.8
-70.649092 42.862135 -68.6
-70.647020 42.862162 -69.2
-70.647406 42.864990 -69.5
-70.645009 42.865018 -70.4
-70.642925 42.865046 -71.0
-70.640664 42.865126 -71.6
-70.638431 42.865190 -72.5
-70.633900 42.865307 -73.2
-70.636295 42.865346 -72.8
-70.652792 42.851443 -70.1
-70.650620 42.851471 -71.0
-70.663511 42.851474 -64.0
-70.659217 42.851510 -67.1
-70.656909 42.851526 -68.0
-70.654761 42.851546 -68.3
-70.661464 42.851546 -65.5
-70.665770 42.851565 -63.1
-70.650081 42.854135 -70.4
-70.652589 42.854246 -69.5
-70.654775 42.854337 -68.9
-70.661450 42.854401 -66.1
-70.659067 42.854449 -66.8
-70.656859 42.854457 -68.0
-70.665846 42.854503 -62.5
-70.663759 42.854549 -63.1
-70.664124 42.856578 -64.3
-70.662086 42.856590 -65.8
-70.658267 42.856635 -68.0
-70.653100 42.856679 -68.9
-70.665932 42.856681 -62.8
-70.654948 42.856707 -68.3
-70.660139 42.856718 -66.8
-70.656234 42.856726 -68.0
-70.651067 42.856735 -69.5
-70.659289 42.859170 -56.7
-70.660725 42.859170 -60.4
-70.662812 42.859178 -60.7
-70.657356 42.859243 -60.4
-70.655184 42.859315 -67.7
-70.664907 42.859325 -63.7
-70.652911 42.859407 -68.3
-70.650753 42.859451 -68.9
-70.653361 42.862062 -67.4
-70.659378 42.862081 -65.2
-70.651189 42.862090 -68.3
-70.657517 42.862117 -65.8
-70.655359 42.862145 -66.4
-70.661587 42.862164 -64.6
-70.665718 42.862192 -63.1
-70.663710 42.862200 -63.7
-70.656356 42.864909 -67.1
-70.660951 42.864911 -65.5
-70.665282 42.864911 -63.7
-70.658565 42.864920 -65.8
-70.663146 42.864928 -64.9
-70.649539 42.864946 -68.9
-70.651900 42.864953 -67.7
-70.654259 42.864956 -67.4
-70.514183 42.870027 -96.6
-70.507308 42.870044 -99.4
-70.509464 42.870058 -98.8
-70.511692 42.870061 -97.8
-70.500720 42.870063 -101.2
-70.505092 42.870125 -100.0
-70.502836 42.870166 -100.3
-70.508092 42.875219 -102.7
-70.515840 42.875238 -99.1
-70.500470 42.875272 -95.4
-70.504603 42.875277 -100.9
-70.506061 42.875325 -102.4
-70.502572 42.875366 -98.5
-70.509372 42.875394 -102.7
-70.513571 42.875427 -93.6
-70.511178 42.875600 -103.6
-70.504508 42.878244 -60.0
-70.506489 42.878313 -68.9
-70.502278 42.878416 -59.4
-70.512879 42.878441 -95.7
-70.508792 42.878472 -87.8
-70.510934 42.878475 -95.4
-70.515232 42.878490 -94.5
-70.500136 42.878605 -50.9
-70.502522 42.880641 -52.7
-70.508115 42.880741 -52.1
-70.504614 42.880744 -50.6
-70.510196 42.880761 -58.2
-70.500378 42.880858 -50.3
-70.512251 42.880874 -63.4
-70.505947 42.880902 -51.5
-70.514479 42.880915 -77.7
-70.500808 42.883347 -53.9
-70.530876 42.868385 -89.6
-70.524326 42.868469 -91.7
-70.528584 42.868521 -90.8
-70.526418 42.868546 -92.7
-70.522196 42.868558 -92.4
-70.531159 42.869893 -89.0
-70.521257 42.869900 -95.1
-70.518918 42.869905 -96.0
-70.529090 42.869937 -89.9
-70.516575 42.869958 -96.0
-70.525665 42.869987 -92.0
-70.527809 42.869999 -86.3
-70.523176 42.870013 -93.6
-70.529507 42.873115 -89.6
-70.531537 42.873129 -89.6
-70.527329 42.873140 -90.5
-70.525023 42.873321 -93.3
-70.521896 42.873382 -94.8
-70.523029 42.873382 -94.2
-70.520037 42.875215 -96.6
-70.517893 42.875260 -96.6
-70.521704 42.875337 -96.6
-70.526451 42.875354 -91.1
-70.528729 42.875440 -90.5
-70.524246 42.875451 -87.5
-70.531121 42.875460 -89.3
-70.522757 42.878454 -84.7
-70.529632 42.878454 -89.9
-70.525098 42.878457 -90.8
-70.519604 42.878468 -82.6
-70.531748 42.878493 -89.0
-70.520876 42.878507 -79.6
-70.527315 42.878515 -90.8
-70.517387 42.878529 -89.3
-70.519276 42.880865 -96.6
-70.516834 42.880899 -92.7
-70.523646 42.880982 -90.2
-70.526112 42.880996 -90.8
-70.521518 42.881051 -91.4
-70.528468 42.881054 -89.6
-70.530671 42.881082 -84.7
-70.532640 42.881140 -85.0
-70.546593 42.867551 -80.8
-70.544737 42.867624 -83.5
-70.548137 42.867626 -80.5
-70.533815 42.867737 -87.5
-70.542771 42.867760 -85.0
-70.540615 42.867932 -87.5
-70.538312 42.867937 -87.8
-70.536268 42.868165 -86.3
-70.533737 42.869301 -87.2
-70.541196 42.869943 -87.2
-70.536923 42.870021 -87.5
-70.544621 42.870021 -87.5
-70.542379 42.870029 -87.2
-70.539029 42.870051 -87.5
-70.534607 42.870054 -87.8
-70.549190 42.870062 -86.6
-70.546973 42.870107 -86.9
-70.533609 42.871201 -87.8
-70.533518 42.873268 -87.2
-70.539546 42.873268 -84.7
-70.535646 42.873290 -86.9
-70.541140 42.873315 -86.0
-70.543096 42.873326 -86.0
-70.537837 42.873340 -86.3
-70.547254 42.873340 -85.3
-70.544987 42.873357 -86.9
-70.533587 42.875115 -87.5
-70.535454 42.875660 -87.5
-70.537384 42.875682 -87.2
-70.540823 42.875712 -87.5
-70.538918 42.875729 -86.9
-70.543187 42.875871 -86.3
-70.545432 42.875874 -86.3
-70.547746 42.875968 -86.0
-70.533857 42.876907 -87.2
-70.547393 42.878357 -85.0
-70.539309 42.878560 -82.9
-70.540579 42.878571 -82.3
-70.542598 42.878582 -85.6
-70.535548 42.878618 -87.2
-70.544951 42.878621 -85.0
-70.534029 42.878682 -87.2
-70.537093 42.878685 -86.9
-70.534023 42.880490 -87.5
-70.537162 42.881074 -86.3
-70.546415 42.881176 -84.4
-70.539540 42.881196 -86.0
-70.548696 42.881199 -84.4
-70.535082 42.881201 -86.6
-70.544098 42.881201 -85.0
-70.541857 42.881262 -86.3
-70.534032 42.882210 -87.5
-70.559471 42.867290 -86.3
-70.561526 42.867293 -86.6
-70.557629 42.867315 -82.6
-70.556371 42.867335 -84.1
-70.554290 42.867396 -86.0
-70.563718 42.867415 -86.6
-70.552259 42.867440 -86.3
-70.550143 42.867537 -85.6
-70.565847 42.867554 -86.3
-70.562332 42.868865 -87.2
-70.553737 42.870060 -86.3
-70.555965 42.870079 -85.3
-70.565172 42.870079 -85.0
-70.551571 42.870112 -86.0
-70.560687 42.870140 -86.9
-70.558232 42.870201 -85.6
-70.563026 42.870207 -86.0
-70.562130 42.871601 -75.3
-70.562899 42.873046 -83.2
-70.561019 42.873126 -84.1
-70.554465 42.873157 -84.4
-70.556621 42.873160 -84.1
-70.564130 42.873212 -82.6
-70.558812 42.873243 -84.1
-70.552262 42.873265 -84.4
-70.549782 42.873287 -82.3
-70.565338 42.873315 -84.1
-70.561727 42.874054 -85.3
-70.559905 42.875818 -84.7
-70.561622 42.875874 -82.0
-70.549690 42.875926 -86.0
-70.556404 42.875943 -86.0
-70.563827 42.875949 -83.8
-70.565919 42.875951 -83.8
-70.558297 42.876026 -85.3
-70.554284 42.876040 -85.6
-70.551982 42.876049 -86.0
-70.561308 42.877335 -85.0
-70.553871 42.878310 -84.4
-70.562352 42.878310 -83.5
-70.564347 42.878329 -82.9
-70.558205 42.878343 -83.8
-70.556063 42.878349 -84.1
-70.549509 42.878351 -84.4
-70.551790 42.878354 -84.1
-70.560222 42.878490 -83.5
-70.561144 42.879274 -84.1
-70.562833 42.881010 -82.6
-70.565349 42.881040 -82.6
-70.560394 42.881082 -82.6
-70.558263 42.881135 -83.2
-70.553702 42.881157 -84.4
-70.555872 42.881160 -83.8
-70.551223 42.881210 -84.4
-70.561163 42.882240 -83.2
-70.582422 42.867471 -87.8
-70.580255 42.867479 -86.6
-70.578199 42.867485 -86.3
-70.567835 42.867549 -86.0
-70.569805 42.867579 -85.6
-70.576119 42.867621 -86.0
-70.571897 42.867646 -85.6
-70.574038 42.867649 -85.6
-70.575455 42.869974 -82.9
-70.582169 42.869999 -86.6
-70.577472 42.870001 -86.0
-70.579852 42.870040 -86.3
-70.573947 42.870054 -82.3
-70.567508 42.870065 -84.7
-70.569738 42.870104 -84.7
-70.572130 42.870107 -84.7
-70.567516 42.873182 -83.5
-70.569969 42.873265 -83.2
-70.572110 42.873268 -83.2
-70.576433 42.873354 -83.2
-70.574491 42.873371 -83.2
-70.581016 42.873424 -82.3
-70.578788 42.873449 -83.2
-70.582297 42.875685 -67.7
-70.578833 42.875707 -82.9
-70.580999 42.875718 -72.8
-70.576752 42.875854 -83.8
-70.570177 42.875901 -83.2
-70.574524 42.875915 -83.8
-70.572444 42.875924 -83.8
-70.567983 42.875937 -83.8
-70.578233 42.878143 -75.6
-70.581633 42.878146 -81.1
-70.576277 42.878149 -80.8
-70.568688 42.878171 -82.6
-70.579638 42.878171 -74.7
-70.566649 42.878221 -82.6
-70.582741 42.878237 -77.7
-70.574233 42.878240 -77.4
-70.570869 42.878246 -82.3
-70.572813 42.878285 -82.0
-70.570041 42.881129 -81.7
-70.572472 42.881132 -81.4
-70.567674 42.881137 -82.0
-70.574863 42.881179 -80.8
-70.582002 42.881240 -75.9
-70.577080 42.881254 -81.1
-70.579772 42.881268 -79.9
-70.596097 42.867474 -85.3
-70.587763 42.867493 -87.5
-70.598338 42.867493 -84.1
-70.583827 42.867510 -87.2
-70.585547 42.867510 -87.5
-70.594127 42.867518 -86.3
-70.592110 42.867551 -87.2
-70.589844 42.867560 -87.8
-70.598272 42.869862 -83.8
-70.595733 42.869899 -85.3
-70.591360 42.869904 -88.1
-70.593813 42.869904 -86.6
-70.589169 42.869921 -89.3
-70.586788 42.869946 -88.1
-70.584622 42.869971 -87.5
-70.587769 42.873485 -51.8
-70.596560 42.873499 -86.0
-70.598580 42.873501 -84.1
-70.592066 42.873515 -66.8
-70.583233 42.873543 -78.9
-70.585327 42.873565 -73.5
-70.594022 42.873599 -81.7
-70.589735 42.873799 -43.6
-70.592885 42.875482 -70.7
-70.590955 42.875507 -78.6
-70.598588 42.875512 -83.2
-70.596883 42.875521 -84.7
-70.595163 42.875546 -79.6
-70.588585 42.875587 -63.1
-70.586519 42.875612 -47.2
-70.584313 42.875685 -73.5
-70.597713 42.878065 -82.6
-70.595422 42.878074 -70.1
-70.586702 42.878076 -65.5
-70.584622 42.878082 -80.2
-70.589716 42.878107 -53.0
-70.588047 42.878112 -57.6
-70.593291 42.878118 -64.6
-70.591299 42.878171 -61.3
-70.590085 42.881026 -53.9
-70.591458 42.881074 -53.0
-70.593824 42.881168 -68.3
-70.584183 42.881196 -81.7
-70.587808 42.881226 -67.7
-70.598533 42.881235 -75.9
-70.596377 42.881243 -74.4
-70.585552 42.881254 -81.4
-70.600455 42.867432 -83.5
-70.602522 42.867562 -82.6
-70.606708 42.867674 -81.1
-70.604763 42.867690 -81.7
-70.607941 42.867712 -80.5
-70.609933 42.867776 -80.2
-70.612039 42.867779 -79.2
-70.614081 42.867779 -78.9
-70.601910 42.868874 -82.6
-70.600713 42.869865 -82.9
-70.605297 42.869979 -81.1
-70.603055 42.870004 -81.4
-70.609595 42.870010 -79.2
-70.611950 42.870021 -78.3
-70.607413 42.870026 -79.9
-70.614428 42.870104 -77.4
-70.601872 42.871171 -82.3
-70.602355 42.872529 -82.3
-70.611709 42.873290 -78.3
-70.609528 42.873307 -78.9
-70.614100 42.873346 -77.1
-70.605330 42.873432 -80.8
-70.600672 42.873465 -82.3
-70.602977 42.873468 -81.4
-70.607436 42.873479 -79.9
-70.604022 42.875399 -80.5
-70.600483 42.875432 -81.4
-70.608281 42.875437 -78.3
-70.612628 42.875440 -77.4
-70.614870 42.875449 -76.5
-70.610250 42.875457 -78.0
-70.606114 42.875471 -79.6
-70.601741 42.875507 -81.4
-70.602127 42.876287 -82.0
-70.602013 42.877701 -82.0
-70.610509 42.878018 -78.6
-70.612539 42.878037 -77.4
-70.614670 42.878049 -76.5
-70.599658 42.878057 -82.9
-70.606384 42.878090 -80.5
-70.604081 42.878135 -81.1
-70.608489 42.878137 -79.6
-70.601911 42.879235 -82.0
-70.605709 42.881057 -80.8
-70.610392 42.881060 -78.9
-70.615003 42.881107 -77.1
-70.603242 42.881110 -82.0
-70.608014 42.881121 -79.6
-70.612511 42.881124 -77.4
-70.600228 42.881218 -82.0
-70.601611 42.881218 -82.0
-70.601734 42.882357 -76.2
-70.608673 42.883382 -78.0
-70.610750 42.883385 -77.1
-70.606703 42.883390 -78.9
-70.612684 42.883393 -76.8
-70.614861 42.883396 -76.2
-70.631195 42.867651 -73.5
-70.629103 42.867768 -74.1
-70.616323 42.867771 -78.0
-70.620345 42.867793 -76.5
-70.618303 42.867829 -77.1
-70.624717 42.867849 -75.9
-70.627073 42.867860 -74.7
-70.622711 42.867932 -75.9
-70.616509 42.870076 -77.1
-70.618850 42.870162 -76.2
-70.621167 42.870182 -73.8
-70.622598 42.870274 -75.0
-70.626934 42.870293 -73.8
-70.629150 42.870304 -73.8
-70.624839 42.870365 -74.4
-70.631478 42.870424 -73.2
-70.629820 42.873087 -72.8
-70.631900 42.873135 -71.9
-70.620728 42.873249 -75.3
-70.622945 42.873249 -74.1
-70.627353 42.873260 -73.5
-70.625025 42.873268 -73.5
-70.616256 42.873293 -76.5
-70.618498 42.873312 -75.3
-70.632573 42.875385 -72.2
-70.621461 42.875462 -74.4
-70.617050 42.875468 -75.9
-70.623614 42.875490 -74.1
-70.619156 42.875507 -75.0
-70.627825 42.875557 -72.8
-70.630328 42.875568 -72.5
-70.625870 42.875612 -73.5
-70.619092 42.878043 -75.6
-70.616861 42.878051 -76.2
-70.623575 42.878071 -74.1
-70.631809 42.878085 -72.2
-70.629753 42.878176 -72.8
-70.621048 42.878218 -75.0
-70.625520 42.878237 -73.8
-70.627550 42.878276 -73.5
-70.631570 42.880986 -72.2
-70.617331 42.881026 -76.5
-70.622164 42.881074 -75.3
-70.624531 42.881112 -74.4
-70.619686 42.881157 -75.6
-70.629103 42.881159 -72.8
-70.626450 42.881168 -73.5
-70.619011 42.883424 -74.7
-70.639406 42.867487 -71.6
-70.643603 42.867535 -69.5
-70.647900 42.867545 -68.9
-70.635459 42.867551 -72.5
-70.637395 42.867560 -71.9
-70.633250 42.867568 -73.2
-70.641556 42.867582 -70.7
-70.645650 42.867601 -69.5
-70.646800 42.870006 -68.9
-70.642453 42.870062 -70.4
-70.644539 42.870078 -69.5
-70.648936 42.870098 -68.0
-70.640178 42.870124 -70.7
-70.637845 42.870132 -71.3
-70.635620 42.870160 -71.9
-70.633409 42.870176 -72.2
-70.633745 42.873118 -71.6
-70.635956 42.873118 -71.0
-70.638092 42.873257 -70.4
-70.640089 42.873403 -69.8
-70.642239 42.873486 -69.2
-70.643675 42.873598 -69.5
-70.645848 42.873681 -69.2
-70.648209 42.873753 -68.3
-70.637778 42.875395 -70.7
-70.640114 42.875414 -70.1
-70.634431 42.875451 -71.6
-70.635753 42.875451 -71.3
-70.644461 42.875470 -69.2
-70.648884 42.875517 -67.7
-70.642086 42.875534 -69.8
-70.646823 42.875536 -68.3
-70.648546 42.878061 -67.4
-70.635939 42.878067 -70.7
-70.646570 42.878125 -67.7
-70.633953 42.878131 -71.6
-70.642148 42.878134 -69.2
-70.644123 42.878134 -68.6
-70.637989 42.878186 -70.1
-70.640111 42.878225 -69.5
-70.638036 42.880953 -70.7
-70.642773 42.880989 -69.2
-70.635700 42.881006 -71.3
-70.647307 42.881028 -68.3
-70.633489 42.881042 -72.2
-70.640536 42.881045 -70.1
-70.644895 42.881048 -68.9
-70.662326 42.867189 -64.6
-70.664401 42.867225 -63.7
-70.660290 42.867328 -64.9
-70.656107 42.867364 -66.1
-70.658154 42.867373 -65.8
-70.654134 42.867473 -66.4
-70.649923 42.867536 -68.0
-70.651884 42.867564 -67.7
-70.651123 42.869989 -67.4
-70.653570 42.869989 -66.8
-70.655793 42.870053 -66.8
-70.657918 42.870284 -65.2
-70.660129 42.870367 -64.9
-70.662412 42.870442 -64.3
-70.664524 42.870606 -63.4
-70.650184 42.873809 -67.7
-70.661687 42.873839 -64.3
-70.657254 42.873895 -65.5
-70.659340 42.873895 -64.9
-70.652571 42.873911 -66.8
-70.663937 42.873914 -63.7
-70.665835 42.873923 -63.1
-70.654793 42.873939 -66.4
-70.651171 42.875453 -67.1
-70.655693 42.875556 -65.8
-70.653432 42.875564 -66.8
-70.658026 42.875667 -65.2
-70.660362 42.875695 -64.6
-70.662412 42.875786 -64.0
-70.664735 42.875786 -63.4
-70.650668 42.878025 -67.1
-70.661224 42.878028 -64.0
-70.656890 42.878036 -65.2
-70.659026 42.878056 -64.6
-70.652829 42.878064 -66.4
-70.654815 42.878081 -65.5
-70.663285 42.878156 -63.4
-70.665324 42.878211 -62.8
-70.658662 42.880811 -65.2
-70.656540 42.880864 -65.8
-70.662024 42.880884 -64.0
-70.654304 42.880900 -66.1
-70.651918 42.880911 -66.8
-70.664324 42.880931 -63.7
-70.649518 42.880948 -67.7
-70.659987 42.880967 -64.9
-70.665960 42.880995 -62.8
-70.502950 42.883480 -53.3
-70.514209 42.883551 -53.6
-70.506912 42.883558 -46.3
-70.505068 42.883611 -49.7
-70.510173 42.883682 -46.3
-70.508332 42.883690 -46.3
-70.512229 42.883712 -50.0
-70.502332 42.886200 -59.1
-70.504587 42.886247 -51.8
-70.514454 42.886279 -52.4
-70.511962 42.886304 -52.4
-70.506879 42.886343 -49.7
-70.509371 42.886418 -49.1
-70.500312 42.887336 -78.0
-70.501729 42.888275 -87.8
-70.510123 42.889149 -54.9
-70.513784 42.889154 -57.0
-70.506112 42.889207 -62.2
-70.511793 42.889207 -54.3
-70.508215 42.889237 -57.6
-70.503307 42.889460 -85.6
-70.501387 42.889624 -93.0
-70.504615 42.890115 -69.2
-70.515559 42.891454 -59.1
-70.513168 42.891496 -60.7
-70.508896 42.891554 -61.9
-70.506790 42.891599 -61.3
-70.510976 42.891604 -61.0
-70.502479 42.891701 -95.7
-70.504248 42.891749 -71.6
-70.500262 42.891846 -95.1
-70.507134 42.892782 -65.5
-70.508443 42.893437 -68.6
-70.500143 42.894351 -95.4
-70.502248 42.894429 -86.9
-70.503979 42.894460 -64.6
-70.505287 42.894471 -68.9
-70.507093 42.894621 -70.1
-70.511679 42.894710 -71.3
-70.509596 42.894754 -71.0
-70.513982 42.894768 -74.7
-70.511712 42.896032 -77.1
-70.500346 42.897210 -96.3
-70.504868 42.897218 -73.5
-70.514137 42.897232 -79.9
-70.502626 42.897240 -92.4
-70.512096 42.897246 -76.8
-70.506601 42.897276 -63.7
-70.508196 42.897276 -68.3
-70.510126 42.897290 -74.4
-70.514534 42.898068 -82.6
-70.516090 42.899154 -75.6
-70.502121 42.899932 -98.8
-70.507676 42.899940 -77.7
-70.512237 42.899940 -78.9
-70.514615 42.899954 -75.9
-70.505659 42.899960 -81.7
-70.510007 42.899985 -78.9
-70.503493 42.900029 -93.3
-70.516304 42.883535 -58.2
-70.518371 42.883557 -82.9
-70.528809 42.883571 -89.6
-70.522493 42.883626 -99.1
-70.520390 42.883632 -97.2
-70.530840 42.883674 -89.9
-70.524512 42.883729 -95.7
-70.526543 42.883732 -92.7
-70.517829 42.886165 -60.4
-70.531096 42.886193 -88.7
-70.528665 42.886262 -89.3
-70.516607 42.886265 -53.9
-70.521629 42.886271 -90.8
-70.523832 42.886274 -96.9
-70.526498 42.886360 -93.3
-70.519237 42.886396 -77.1
-70.516301 42.889029 -58.2
-70.520787 42.889046 -83.8
-70.531598 42.889060 -88.1
-70.529532 42.889129 -89.6
-70.527526 42.889165 -93.0
-70.518468 42.889179 -61.3
-70.523812 42.889187 -96.0
-70.526229 42.889190 -94.8
-70.523509 42.891390 -95.7
-70.525015 42.891457 -95.4
-70.518662 42.891468 -64.9
-70.520868 42.891471 -91.1
-70.528779 42.891482 -90.5
-70.530846 42.891585 -89.3
-70.526798 42.891590 -92.4
-70.532751 42.891799 -87.8
-70.520098 42.894796 -89.6
-70.516187 42.894882 -78.0
-70.518379 42.894904 -81.4
-70.532259 42.894940 -75.0
-70.528198 42.894971 -86.3
-70.530451 42.894974 -78.0
-70.526154 42.894979 -87.2
-70.521607 42.895010 -93.3
-70.523862 42.895012 -91.7
-70.532715 42.896824 -86.6
-70.530434 42.896849 -87.2
-70.525526 42.896851 -84.7
-70.528540 42.896901 -86.0
-70.527046 42.896926 -86.9
-70.523321 42.896976 -91.7
-70.516368 42.897012 -83.5
-70.518162 42.897035 -82.9
-70.521290 42.897085 -93.0
-70.519521 42.897137 -92.4
-70.531748 42.899801 -86.3
-70.528323 42.899907 -85.0
-70.529718 42.899918 -86.3
-70.524784 42.899937 -88.1
-70.523115 42.899946 -74.4
-70.521568 42.899962 -75.9
-70.519090 42.899968 -72.8
-70.526143 42.899996 -85.6
-70.516896 42.900029 -64.6
-70.534540 42.883479 -83.2
-70.546559 42.883593 -84.1
-70.548801 42.883596 -84.1
-70.542276 42.883626 -86.3
-70.532907 42.883649 -82.6
-70.544293 42.883665 -86.0
-70.540146 42.883715 -86.0
-70.538126 42.883721 -86.3
-70.536059 42.883754 -86.6
-70.534548 42.884857 -88.4
-70.534621 42.885829 -87.5
-70.540190 42.886224 -85.0
-70.544537 42.886229 -83.8
-70.546679 42.886229 -83.5
-70.542271 42.886254 -84.4
-70.535718 42.886310 -86.9
-70.548860 42.886343 -83.5
-70.533226 42.886351 -87.8
-70.537834 42.886460 -85.6
-70.534679 42.887685 -87.5
-70.543034 42.889065 -84.1
-70.533568 42.889082 -87.2
-70.540768 42.889099 -85.0
-70.538537 42.889132 -85.6
-70.536209 42.889140 -86.0
-70.545376 42.889140 -83.5
-70.547697 42.889218 -83.2
-70.534726 42.889596 -86.3
-70.534423 42.891076 -87.2
-70.536901 42.891776 -86.3
-70.538993 42.891799 -85.6
-70.534982 42.891849 -87.2
-70.543155 42.891932 -84.1
-70.541184 42.891957 -84.7
-70.545347 42.891979 -83.8
-70.547302 42.892046 -83.5
-70.549397 42.892124 -82.9
-70.534654 42.893840 -88.1
-70.536184 42.894799 -79.2
-70.534801 42.894824 -84.4
-70.542363 42.894824 -84.4
-70.538190 42.894829 -86.3
-70.544608 42.894854 -83.5
-70.546399 42.894912 -82.9
-70.548480 42.894932 -82.9
-70.540444 42.894951 -86.6
-70.534984 42.896607 -86.0
-70.536440 42.896610 -86.0
-70.537898 42.896657 -85.6
-70.539805 42.896751 -83.2
-70.544852 42.896757 -82.6
-70.541824 42.896771 -76.8
-70.543580 42.896774 -83.2
-70.546247 42.896860 -82.0
-70.548363 42.896935 -81.4
-70.534854 42.898362 -85.0
-70.538838 42.899782 -83.5
-70.536683 42.899815 -84.4
-70.543052 42.899832 -83.2
-70.541069 42.899840 -82.9
-70.545094 42.899843 -82.3
-70.547474 42.899874 -75.9
-70.534004 42.899951 -86.0
-70.550646 42.883635 -84.1
-70.552738 42.883693 -84.1
-70.554794 42.883804 -83.8
-70.560674 42.883829 -81.7
-70.556863 42.883835 -83.2
-70.562816 42.883924 -80.8
-70.558794 42.883946 -82.6
-70.564947 42.884146 -79.2
-70.561058 42.884629 -77.1
-70.555699 42.886185 -82.6
-70.564530 42.886185 -80.5
-70.553558 42.886249 -82.9
-70.557755 42.886251 -82.0
-70.551288 42.886274 -83.2
-70.559822 42.886310 -82.0
-70.562163 42.886357 -80.8
-70.561027 42.887449 -82.3
-70.552291 42.889196 -82.6
-70.550199 42.889237 -82.6
-70.554360 42.889243 -82.3
-70.556813 42.889337 -81.7
-70.558908 42.889360 -81.7
-70.560913 42.889371 -81.1
-70.565858 42.889412 -80.2
-70.563366 42.889546 -80.5
-70.560947 42.891079 -81.4
-70.553172 42.892082 -82.6
-70.561594 42.892118 -81.1
-70.551316 42.892135 -82.6
-70.555302 42.892212 -82.0
-70.557294 42.892215 -81.7
-70.559027 42.892226 -75.3
-70.565441 42.892232 -75.0
-70.563360 42.892285 -81.1
-70.560494 42.893549 -70.4
-70.554697 42.894840 -81.4
-70.561835 42.894865 -68.9
-70.563208 42.894904 -71.9
-70.565077 42.894915 -74.7
-70.556380 42.894924 -81.1
-70.550649 42.894935 -82.3
-70.557974 42.894971 -81.1
-70.559533 42.894974 -71.9
-70.552680 42.895001 -81.7
-70.559966 42.895846 -71.9
-70.552638 42.896885 -80.8
-70.554819 42.896887 -81.1
-70.563541 42.896887 -78.0
-70.561883 42.896896 -77.1
-70.565719 42.896926 -74.4
-70.556613 42.896962 -79.6
-70.550447 42.896974 -81.1
-70.559913 42.896985 -68.6
-70.557772 42.897176 -80.5
-70.559885 42.898307 -79.9
-70.551997 42.899807 -82.6
-70.556208 42.899837 -64.6
-70.557591 42.899896 -70.1
-70.549741 42.899915 -71.9
-70.559758 42.899924 -79.6
-70.554188 42.899974 -81.4
-70.561741 42.899974 -78.9
-70.564294 42.900012 -75.9
-70.581288 42.883876 -70.1
-70.579219 42.883929 -73.8
-70.575919 42.883937 -77.7
-70.577649 42.883949 -76.8
-70.572841 42.883971 -80.8
-70.574199 42.884026 -81.4
-70.569041 42.884115 -81.1
-70.567135 42.884121 -82.0
-70.570947 42.884124 -80.8
-70.566624 42.886251 -79.9
-70.568749 42.886354 -79.6
-70.575291 42.886387 -72.8
-70.573135 42.886396 -79.9
-70.570855 42.886440 -79.2
-70.577833 42.886482 -75.9
-70.579688 42.886485 -77.1
