-70.710818 43.048636 -7.3
-70.711404 43.048636 -7.0
-70.710168 43.048645 -8.5
-70.709596 43.048661 -9.1
-70.708977 43.048870 -9.8
-70.714757 43.049331 -4.0
-70.713635 43.049345 -3.7
-70.714057 43.049350 -3.4
-70.712993 43.049386 -4.6
-70.710029 43.049389 -9.8
-70.711599 43.049400 -5.8
-70.710527 43.049425 -8.2
-70.712268 43.049428 -5.5
-70.714377 43.049428 -4.6
-70.711010 43.049436 -7.3
-70.709599 43.049475 -8.2
-70.709296 43.049500 -9.1
-70.709993 43.049545 -9.4
-70.712960 43.049583 -5.2
-70.711199 43.049667 -7.0
-70.713871 43.049736 -4.6
-70.710038 43.049756 -9.1
-70.712954 43.049836 -5.5
-70.709690 43.049842 -10.1
-70.711307 43.049853 -6.7
-70.710288 43.049864 -7.3
-70.709127 43.049881 -10.1
-70.710804 43.049881 -8.5
-70.710063 43.049883 -7.9
-70.711729 43.049895 -6.4
-70.713724 43.049900 -5.5
-70.712282 43.049917 -7.0
-70.713321 43.049933 -4.9
-70.713910 43.049950 -5.8
-70.713604 43.049958 -4.9
-70.712940 43.049970 -5.5
-70.714632 43.050011 -1.5
-70.714146 43.050025 -5.2
-70.714382 43.050028 -4.3
-70.711204 43.050047 -7.9
-70.714993 43.050047 -3.0
-70.715871 43.050064 -0.9
-70.715427 43.050086 -2.1
-70.713854 43.050114 -5.2
-70.712185 43.050122 -7.0
-70.712924 43.050136 -6.7
-70.714163 43.050139 -4.3
-70.710107 43.050145 -9.4
-70.715782 43.050217 -0.6
-70.713868 43.050258 -5.5
-70.714643 43.050270 -3.7
-70.712038 43.050278 -7.0
-70.712704 43.050278 -7.9
-70.711260 43.050289 -8.2
-70.714168 43.050292 -4.9
-70.710077 43.050336 -9.4
-70.712929 43.050378 -7.3
-70.712138 43.050381 -8.8
-70.714613 43.050425 -4.6
-70.711018 43.050458 -8.8
-70.711427 43.050461 -7.3
-70.710493 43.050472 -7.9
-70.710502 43.050472 -7.9
-70.713652 43.050486 -6.1
-70.709179 43.050495 -10.4
-70.713835 43.050506 -5.8
-70.714196 43.050572 -5.5
-70.711163 43.050600 -9.1
-70.710060 43.050603 -9.8
-70.712752 43.050617 -7.9
-70.712113 43.050636 -9.4
-70.712932 43.050650 -8.2
-70.711963 43.050661 -9.4
-70.714571 43.050695 -4.6
-70.711252 43.050720 -8.2
-70.710385 43.050767 -8.2
-70.713840 43.050767 -6.4
-70.710604 43.050775 -7.6
-70.713652 43.050792 -6.1
-70.714174 43.050811 -5.8
-70.710018 43.050814 -9.4
-70.711157 43.050895 -8.8
-70.712096 43.050900 -8.8
-70.712974 43.050928 -7.6
-70.711963 43.050936 -9.4
-70.710779 43.050947 -8.2
-70.710304 43.050956 -7.0
-70.712685 43.050958 -8.2
-70.709457 43.051000 -10.1
-70.713815 43.051022 -6.4
-70.714579 43.051022 -4.6
-70.714202 43.051072 -6.1
-70.709990 43.051086 -9.8
-70.710690 43.051086 -8.2
-70.713635 43.051095 -7.0
-70.711252 43.051131 -7.9
-70.711068 43.051172 -9.1
-70.712154 43.051175 -8.5
-70.712965 43.051203 -7.6
-70.711946 43.051222 -9.1
-70.711710 43.051275 -10.1
-70.713813 43.051297 -6.4
-70.709996 43.051303 -9.8
-70.714557 43.051320 -4.3
-70.712690 43.051322 -8.8
-70.714182 43.051333 -5.8
-70.711240 43.051336 -9.1
-70.708957 43.051364 -12.8
-70.713599 43.051364 -6.7
-70.709549 43.051397 -11.6
-70.709888 43.051411 -10.4
-70.710202 43.051420 -11.3
-70.712154 43.051450 -8.5
-70.712932 43.051458 -7.9
-70.714557 43.051467 -3.0
-70.711118 43.051475 -10.4
-70.714202 43.051489 -5.5
-70.710765 43.051506 -9.8
-70.711971 43.051542 -9.1
-70.709988 43.051545 -11.1
-70.713838 43.051586 -6.1
-70.711252 43.051592 -10.4
-70.712171 43.051595 -8.5
-70.711699 43.051617 -9.1
-70.714199 43.051631 -5.5
-70.714560 43.051636 -3.7
-70.709849 43.051647 -11.6
-70.709243 43.051664 -12.8
-70.712699 43.051672 -7.9
-70.713540 43.051695 -6.7
-70.712124 43.051714 -8.5
-70.712979 43.051714 -7.6
-70.710163 43.051725 -11.9
-70.709949 43.051775 -11.9
-70.712402 43.051783 -8.2
-70.711138 43.051789 -10.7
-70.713813 43.051820 -5.8
-70.710502 43.051828 -11.6
-70.709085 43.051847 -13.1
-70.709615 43.051867 -12.5
-70.711904 43.051870 -9.1
-70.714179 43.051875 -4.3
-70.714602 43.051931 -2.1
-70.712668 43.051936 -7.9
-70.710860 43.051950 -11.1
-70.712963 43.051972 -7.6
-70.709957 43.051981 -12.2
-70.711321 43.051995 -10.4
-70.712099 43.052000 -8.5
-70.713527 43.052000 -7.0
-70.710185 43.052014 -12.5
-70.711113 43.052047 -10.7
-70.712638 43.052056 -8.2
-70.713846 43.052056 -6.1
-70.712899 43.052095 -7.0
-70.714174 43.052120 -5.8
-70.713082 43.052136 -7.9
-70.710407 43.052145 -12.2
-70.711882 43.052150 -9.3
-70.711540 43.052156 -9.8
-70.709982 43.052214 -12.5
-70.711293 43.052239 -10.4
-70.713229 43.052247 -7.6
-70.712071 43.052253 -8.5
-70.712929 43.052256 -7.9
-70.714610 43.052256 -0.9
-70.713810 43.052286 -6.7
-70.710682 43.052297 -11.6
-70.713482 43.052303 -7.6
-70.710340 43.052342 -12.2
-70.711088 43.052367 -10.7
-70.714213 43.052372 -5.8
-70.712213 43.052414 -8.2
-70.709971 43.052433 -12.8
-70.713468 43.052436 -7.5
-70.712624 43.052442 -8.2
-70.710957 43.052461 -11.0
-70.711296 43.052481 -10.4
-70.712949 43.052489 -7.6
-70.711802 43.052492 -9.4
-70.712046 43.052531 -8.5
-70.712585 43.052567 -7.9
-70.713829 43.052567 -7.0
-70.710657 43.052572 -11.6
-70.713479 43.052578 -7.5
-70.714629 43.052586 -5.8
-70.714238 43.052620 -6.4
-70.709990 43.052633 -12.8
-70.712915 43.052656 -7.6
-70.711110 43.052670 -10.7
-70.711485 43.052711 -10.1
-70.711285 43.052750 -10.4
-70.714038 43.052770 -6.7
-70.712924 43.052786 -7.9
-70.711049 43.052792 -10.7
-70.710646 43.052795 -11.9
-70.711813 43.052795 -9.1
-70.712043 43.052797 -8.5
-70.713807 43.052806 -7.0
-70.712640 43.052811 -8.2
-70.713388 43.052842 -7.6
-70.714243 43.052842 -6.7
-70.713146 43.052845 -7.5
-70.714635 43.052861 -6.1
-70.710052 43.052864 -12.8
-70.711082 43.052956 -10.7
-70.714227 43.052961 -6.4
-70.711477 43.052981 -9.8
-70.713507 43.052989 -7.5
-70.711296 43.053000 -10.4
-70.712952 43.053014 -7.9
-70.715815 43.053031 -4.3
-70.712077 43.053036 -8.5
-70.713763 43.053061 -7.6
-70.710071 43.053075 -12.8
-70.715365 43.053078 -4.9
-70.713360 43.053089 -7.6
-70.714268 43.053095 -6.7
-70.712246 43.053108 -8.2
-70.711788 43.053120 -8.8
-70.714460 43.053136 -6.1
-70.711615 43.053192 -8.8
-70.714685 43.053200 -6.1
-70.711613 43.053206 -8.8
-70.712607 43.053211 -8.2
-70.711099 43.053228 -10.4
-70.711271 43.053228 -10.1
-70.715321 43.053233 -5.2
-70.711840 43.053236 -8.5
-70.709635 43.053245 -12.8
-70.710096 43.053258 -12.5
-70.715854 43.053295 -4.6
-70.712902 43.053297 -7.9
-70.712027 43.053311 -8.5
-70.713846 43.053333 -7.3
-70.714274 43.053339 -6.7
-70.714007 43.053342 -7.0
-70.712743 43.053347 -7.6
-70.714624 43.053353 -5.8
-70.711340 43.053356 -9.8
-70.715332 43.053381 -5.2
-70.713374 43.053403 -7.5
-70.711754 43.053431 -8.5
-70.712207 43.053431 -8.2
-70.710127 43.053439 -11.9
-70.714140 43.053445 -6.7
-70.713074 43.053470 -7.9
-70.711093 43.053481 -7.3
-70.711607 43.053489 -8.5
-70.712899 43.053531 -7.9
-70.712590 43.053533 -7.9
-70.715938 43.053545 -4.6
-70.712113 43.053547 -8.5
-70.714782 43.053572 -6.1
-70.711099 43.053583 -8.8
-70.711710 43.053586 -8.2
-70.713335 43.053592 -7.6
-70.713846 43.053595 -7.3
-70.714263 43.053600 -6.7
-70.709582 43.053606 -11.3
-70.711327 43.053625 -9.4
-70.710263 43.053645 -7.6
-70.712677 43.053650 -7.9
-70.711918 43.053678 -8.5
-70.713560 43.053678 -7.3
-70.715315 43.053703 -5.2
-70.713357 43.053711 -7.6
-70.712968 43.053717 -7.6
-70.715054 43.053725 -5.5
-70.711699 43.053731 -8.8
-70.711077 43.053733 -9.1
-70.714415 43.053742 -6.4
-70.712132 43.053770 -8.2
-70.716002 43.053772 -4.6
-70.712140 43.053781 -8.2
-70.711340 43.053808 -9.1
-70.710810 43.053814 -6.7
-70.713746 43.053828 -7.3
-70.712804 43.053833 -7.6
-70.714190 43.053850 -7.0
-70.710143 43.053861 -8.8
-70.713363 43.053875 -7.3
-70.711085 43.053886 -6.4
-70.715232 43.053889 -5.2
-70.713088 43.053892 -7.6
-70.712363 43.053908 -7.6
-70.714793 43.053908 -6.4
-70.712579 43.053925 -7.0
-70.714010 43.053928 -7.0
-70.714574 43.053956 -6.4
-70.711660 43.053961 -8.5
-70.710527 43.053992 -7.0
-70.713354 43.054020 -6.7
-70.715346 43.054042 -4.9
-70.711374 43.054045 -6.4
-70.713688 43.054045 -7.0
-70.710124 43.054050 -8.8
-70.715493 43.054050 -4.9
-70.716065 43.054050 -4.6
-70.712640 43.054056 -7.3
-70.714363 43.054058 -6.7
-70.712093 43.054067 -6.7
-70.711654 43.054078 -5.8
-70.712804 43.054092 -7.3
-70.714710 43.054097 -6.1
-70.714174 43.054106 -7.0
-70.713502 43.054145 -7.0
-70.714552 43.054158 -6.4
-70.711021 43.054172 -4.0
-70.712082 43.054195 -3.7
-70.714035 43.054197 -7.0
-70.712899 43.054236 -7.0
-70.715663 43.054236 -4.6
-70.713615 43.054239 -6.7
-70.714824 43.054245 -6.1
-70.710110 43.054297 -8.5
-70.711379 43.054300 -4.3
-70.716071 43.054300 -4.6
-70.713332 43.054331 -5.8
-70.714154 43.054336 -6.7
-70.712068 43.054345 -3.4
-70.715288 43.054347 -4.6
-70.713135 43.054358 -6.4
-70.712707 43.054361 -6.4
-70.711599 43.054370 -2.4
-70.713960 43.054378 -6.4
-70.714449 43.054381 -6.4
-70.715079 43.054406 -4.9
-70.710127 43.054417 -8.5
-70.715843 43.054420 -4.3
-70.709729 43.054431 -9.4
-70.711443 43.054475 -3.4
-70.713413 43.054492 -6.1
-70.711015 43.054495 -6.4
-70.715013 43.054495 -5.2
-70.715365 43.054514 -4.3
-70.716060 43.054547 -4.3
-70.711590 43.054578 -4.9
-70.714168 43.054583 -6.1
-70.714827 43.054614 -5.8
-70.712054 43.054625 -1.8
-70.714479 43.054631 -5.5
-70.713652 43.054642 -5.5
-70.715293 43.054642 -4.6
-70.715627 43.054645 -4.0
-70.711432 43.054647 -4.9
-70.710088 43.054658 -8.8
-70.711563 43.054731 -4.0
-70.715899 43.054745 -3.8
-70.715121 43.054753 -4.6
-70.713946 43.054772 -4.6
-70.711013 43.054800 -6.4
-70.711377 43.054814 -4.0
-70.714152 43.054814 -4.3
-70.716043 43.054817 -4.0
-70.710082 43.054856 -8.5
-70.714765 43.054889 -5.5
-70.710496 43.054920 -7.9
-70.714215 43.054925 -3.7
-70.714971 43.054925 -5.2
-70.715560 43.054953 -3.8
-70.715268 43.054964 -4.6
-70.710963 43.055003 -4.9
-70.711349 43.055014 -3.7
-70.711510 43.055047 -3.7
-70.716027 43.055053 -3.7
-70.714488 43.055056 -4.9
-70.710060 43.055070 -8.5
-70.714065 43.055095 -2.1
-70.715568 43.055122 -4.0
-70.715838 43.055122 -3.4
-70.710963 43.055150 -4.0
-70.710493 43.055156 -6.1
-70.711552 43.055156 -2.7
-70.711838 43.055156 -0.6
-70.709621 43.055175 -10.4
-70.712007 43.055178 -0.6
-70.710674 43.055183 -6.1
-70.715388 43.055189 -4.9
-70.716010 43.055203 -3.4
-70.714035 43.055208 -1.8
-70.711335 43.055220 -2.4
-70.714732 43.055225 -4.6
-70.710060 43.055283 -8.5
-70.710915 43.055286 -4.0
-70.715996 43.055303 -3.7
-70.715310 43.055306 -4.9
-70.714043 43.055339 -1.5
-70.710360 43.055375 -5.8
-70.711307 43.055381 -0.9
-70.714982 43.055403 -4.6
-70.712279 43.055420 -0.9
-70.710002 43.055483 -8.5
-70.710849 43.055492 -3.4
-70.714699 43.055495 -4.3
-70.711949 43.055503 -1.2
-70.711768 43.055545 -0.2
-70.715921 43.055564 -5.2
-70.715213 43.055578 -4.6
-70.714010 43.055625 -2.4
-70.711435 43.055653 0.9
-70.710057 43.055672 -7.6
-70.709590 43.055703 -8.8
-70.715413 43.055706 -4.9
-70.710807 43.055711 -2.1
-70.715940 43.055772 -4.9
-70.714677 43.055814 -3.7
-70.715660 43.055831 -4.3
-70.715293 43.055833 -3.4
-70.714879 43.055836 -3.7
-70.714490 43.055839 -3.0
-70.714082 43.055861 -1.8
-70.712071 43.055870 -0.3
-70.710977 43.055872 -2.1
-70.713882 43.055878 -1.5
-70.710613 43.055906 -4.0
-70.710118 43.055908 -6.1
-70.711929 43.055925 -0.3
-70.711713 43.055978 -1.5
-70.715679 43.055995 -4.3
-70.710446 43.055997 -4.9
-70.710777 43.056008 -3.7
-70.715310 43.056033 -3.7
-70.711529 43.056039 -1.8
-70.710254 43.056047 -5.5
-70.714693 43.056050 -2.7
-70.715843 43.056070 -4.3
-70.710099 43.056092 -7.6
-70.711379 43.056100 -1.2
-70.708874 43.056108 -12.2
-70.711254 43.056139 -0.6
-70.709982 43.056172 -7.9
-70.711085 43.056208 -0.9
-70.715804 43.056217 -3.4
-70.716024 43.056242 -4.0
-70.715604 43.056245 -2.7
-70.710421 43.056256 -4.9
-70.710907 43.056267 -1.5
-70.715296 43.056275 -2.4
-70.710782 43.056289 -3.4
-70.714660 43.056306 -1.8
-70.710182 43.056328 -7.5
-70.710599 43.056400 -4.0
-70.715046 43.056417 -2.1
-70.710388 43.056425 -6.1
-70.715402 43.056431 -2.1
-70.716119 43.056447 -2.1
-70.709065 43.056497 -11.3
-70.710652 43.056522 -4.0
-70.710210 43.056528 -7.6
-70.715174 43.056539 -1.8
-70.714652 43.056550 -0.9
-70.715602 43.056550 -2.1
-70.715913 43.056570 -1.8
-70.715788 43.056572 -2.1
-70.709949 43.056600 -9.4
-70.715315 43.056631 -1.5
-70.710277 43.056770 -7.3
-70.715769 43.056781 -1.5
-70.714699 43.056803 -0.6
-70.710979 43.056806 -0.6
-70.710777 43.056875 -3.4
-70.710577 43.056906 -4.0
-70.714674 43.056958 -0.6
-70.710304 43.056970 -6.7
-70.715368 43.056972 -0.6
-70.715730 43.057006 -1.2
-70.710068 43.057058 -8.2
-70.714640 43.057122 -0.3
-70.710293 43.057156 -6.1
-70.710929 43.057203 -3.0
-70.710752 43.057270 -3.0
-70.714640 43.057272 -0.3
-70.714793 43.057289 -0.3
-70.715052 43.057300 -0.3
-70.715264 43.057303 -0.3
-70.710507 43.057322 -2.4
-70.715500 43.057339 -0.6
-70.715736 43.057356 -0.6
-70.715972 43.057358 -0.3
-70.710324 43.057386 -3.7
-70.714649 43.057422 0.0
-70.710077 43.057472 -6.7
-70.710352 43.057547 -5.5
-70.710349 43.057633 -4.6
-70.710360 43.057778 -3.7
-70.710229 43.057806 -4.3
-70.710399 43.057978 -3.4
-70.710421 43.058186 -2.1
-70.728653 43.052083 -0.2
-70.728489 43.052492 -0.3
-70.724711 43.052797 0.0
-70.716540 43.052906 -2.1
-70.724741 43.052931 0.0
-70.728355 43.052986 -0.6
-70.716538 43.053136 -3.0
-70.724819 43.053150 -0.3
-70.721839 43.053181 -0.3
-70.721803 43.053300 -0.3
-70.724847 43.053339 -0.2
-70.722525 43.053367 -0.3
-70.721772 43.053428 -0.3
-70.728080 43.053428 -1.1
-70.716535 43.053442 -3.7
-70.727308 43.053470 0.0
-70.717374 43.053475 -2.4
-70.722483 43.053486 -0.6
-70.721764 43.053547 -0.3
-70.721250 43.053578 -0.3
-70.723803 43.053611 -0.3
-70.722536 43.053625 -0.3
-70.724880 43.053631 -0.2
-70.721233 43.053683 -0.3
-70.716527 43.053689 -4.0
-70.717232 43.053708 -3.0
-70.727839 43.053711 -1.5
-70.727289 43.053739 0.0
-70.721722 43.053808 -0.3
-70.721264 43.053811 -0.3
-70.722539 43.053842 -0.6
-70.723741 43.053895 -0.3
-70.725714 43.053920 0.0
-70.717063 43.053972 -3.4
-70.716549 43.053978 -4.0
-70.720272 43.053978 -0.9
-70.724905 43.053997 -0.2
-70.727247 43.054017 0.0
-70.722611 43.054025 -0.6
-70.721739 43.054031 -0.3
-70.725739 43.054045 0.3
-70.718575 43.054056 -0.3
-70.721272 43.054061 -0.3
-70.725314 43.054070 -0.3
-70.725444 43.054089 -0.2
-70.724958 43.054092 -0.3
-70.727755 43.054092 -1.1
-70.725622 43.054114 0.2
-70.724644 43.054156 -0.3
-70.724791 43.054181 -0.3
-70.724394 43.054183 -0.6
-70.723994 43.054192 -0.6
-70.727247 43.054192 -0.2
-70.725050 43.054200 -0.3
-70.722780 43.054206 -0.6
-70.723561 43.054206 -0.6
-70.722411 43.054208 -0.6
-70.721133 43.054211 -0.9
-70.723258 43.054214 -0.6
-70.719511 43.054220 -1.5
-70.720711 43.054220 -0.6
-70.721578 43.054220 -0.6
-70.721961 43.054220 -0.6
-70.719905 43.054222 -1.2
-70.720422 43.054225 -0.9
-70.720208 43.054228 -0.6
-70.716890 43.054233 -3.4
-70.719119 43.054236 -1.2
-70.716546 43.054242 -4.0
-70.723725 43.054245 -0.3
-70.725700 43.054256 -0.2
-70.721278 43.054258 -0.6
-70.724908 43.054272 -0.2
-70.721730 43.054283 -0.3
-70.718658 43.054297 -0.6
-70.725408 43.054303 -0.3
-70.722600 43.054308 -0.6
-70.725861 43.054311 -0.3
-70.718536 43.054325 -0.6
-70.727230 43.054350 -0.3
-70.724669 43.054375 -0.3
-70.720253 43.054378 -0.6
-70.721730 43.054408 -0.6
-70.723658 43.054420 -1.2
-70.724800 43.054428 -0.3
-70.721275 43.054431 -0.3
-70.724997 43.054431 -0.6
-70.723847 43.054433 -0.6
-70.723466 43.054445 -0.6
-70.724244 43.054450 -0.6
-70.722819 43.054467 -1.8
-70.723130 43.054470 -2.1
-70.718508 43.054495 -0.9
-70.725097 43.054511 -0.6
-70.716543 43.054514 -3.7
-70.716727 43.054531 -3.4
-70.727164 43.054539 -0.3
-70.720275 43.054545 -3.0
-70.721278 43.054545 -2.4
-70.723644 43.054547 -3.7
-70.727389 43.054547 -1.2
-70.723447 43.054553 -2.1
-70.722619 43.054556 -3.4
-70.723025 43.054556 -3.4
-70.725664 43.054572 -0.3
-70.726114 43.054572 -0.3
-70.721716 43.054581 -2.7
-70.722239 43.054581 -3.4
-70.725408 43.054581 -0.6
-70.724936 43.054589 -1.2
-70.721075 43.054597 -2.7
-70.721855 43.054611 -3.4
-70.721491 43.054614 -3.0
-70.718489 43.054647 -2.4
-70.720339 43.054650 -3.0
-70.724853 43.054650 -1.2
-70.720736 43.054658 -3.0
-70.719869 43.054664 -2.1
-70.719566 43.054667 -3.0
-70.720022 43.054667 -2.4
-70.722616 43.054675 -3.0
-70.718364 43.054681 -2.7
-70.719222 43.054683 -3.0
-70.718816 43.054686 -3.0
-70.724797 43.054686 -1.8
-70.725339 43.054686 -0.9
-70.724191 43.054689 -3.4
-70.726039 43.054692 -0.3
-70.723411 43.054695 -3.0
-70.725158 43.054695 -1.2
-70.722978 43.054697 -3.0
-70.717989 43.054700 -2.4
-70.727161 43.054714 -0.3
-70.724603 43.054717 -2.7
-70.725528 43.054720 -0.6
-70.723705 43.054725 -3.4
-70.724980 43.054739 -1.5
-70.725783 43.054742 -0.3
-70.726364 43.054758 -0.3
-70.721772 43.054767 -3.0
-70.721241 43.054786 -3.0
-70.720258 43.054800 -2.7
-70.716599 43.054803 -3.4
-70.726055 43.054814 -0.3
-70.726883 43.054825 -0.3
-70.726511 43.054828 -0.3
-70.725597 43.054831 -0.6
-70.725089 43.054836 -1.8
-70.725441 43.054836 -0.9
-70.724375 43.054839 -3.0
-70.724744 43.054839 -3.0
-70.727394 43.054845 -0.9
-70.720050 43.054850 -1.8
-70.727269 43.054850 -0.6
-70.727603 43.054850 -0.2
-70.727978 43.054853 -0.2
-70.723972 43.054864 -3.4
-70.723625 43.054867 -3.0
-70.728333 43.054867 0.0
-70.728655 43.054870 0.0
-70.729041 43.054872 0.0
-70.722666 43.054875 -2.7
-70.723203 43.054875 -3.0
-70.722869 43.054878 -3.0
-70.725289 43.054878 -1.2
-70.724191 43.054889 -3.4
-70.724883 43.054889 -2.4
-70.720358 43.054900 -3.0
-70.722469 43.054903 -3.0
-70.722111 43.054908 -3.0
-70.718455 43.054914 -3.4
-70.720672 43.054917 -3.0
-70.721150 43.054925 -2.7
-70.721716 43.054925 -3.0
-70.725194 43.054928 -2.4
-70.721333 43.054933 -3.0
-70.719539 43.054947 -3.0
-70.720936 43.054950 -3.0
-70.721475 43.054961 -2.7
-70.720500 43.054964 -3.0
-70.724991 43.054981 -3.0
-70.725714 43.054986 -0.6
-70.720119 43.054989 -2.1
-70.727053 43.054989 -0.9
-70.716557 43.054992 -3.7
-70.725405 43.055006 -0.9
-70.725900 43.055006 -0.3
-70.719741 43.055008 -2.7
-70.726486 43.055008 0.0
-70.726280 43.055011 -0.2
-70.724666 43.055022 -3.0
-70.718930 43.055033 -3.4
-70.719350 43.055036 -3.0
-70.726672 43.055045 -0.6
-70.723153 43.055047 -3.0
-70.724319 43.055047 -3.4
-70.725544 43.055047 -0.9
-70.723944 43.055050 -3.0
-70.721764 43.055053 -2.7
-70.722380 43.055058 -3.0
-70.722794 43.055058 -3.0
-70.722000 43.055064 -3.0
-70.723830 43.055064 -2.7
-70.723578 43.055072 -3.0
-70.718578 43.055075 -3.4
-70.721169 43.055083 -2.4
-70.726011 43.055083 -0.3
-70.721589 43.055086 -2.7
-70.727028 43.055086 -0.9
-70.720911 43.055108 -2.4
-70.720569 43.055111 -2.4
-70.720253 43.055122 -2.1
-70.724594 43.055122 -3.4
-70.718150 43.055125 -3.7
-70.725328 43.055131 -2.4
-70.719458 43.055145 -1.8
-70.719961 43.055145 -1.8
-70.724208 43.055145 -3.4
-70.726266 43.055145 -0.3
-70.719797 43.055153 -2.4
-70.724786 43.055153 -3.0
-70.725525 43.055153 -1.2
-70.717299 43.055158 -2.7
-70.717733 43.055158 -3.7
-70.725775 43.055161 -0.6
-70.720991 43.055167 -2.4
-70.721425 43.055167 -2.7
-70.721875 43.055175 -2.7
-70.726441 43.055186 -0.3
-70.722683 43.055195 -2.7
-70.725180 43.055200 -3.0
-70.718422 43.055211 -3.4
-70.720158 43.055211 -2.1
-70.722336 43.055211 -2.7
-70.720616 43.055225 -2.1
-70.719125 43.055228 -2.1
-70.723208 43.055239 -2.7
-70.719597 43.055242 -1.8
-70.726928 43.055253 -0.6
-70.719453 43.055256 -1.5
-70.716507 43.055267 -4.3
-70.723600 43.055270 -2.7
-70.718744 43.055281 -2.4
-70.724886 43.055283 -3.0
-70.721116 43.055286 -2.1
-70.719289 43.055295 -1.5
-70.725369 43.055303 -3.0
-70.724505 43.055311 -2.7
-70.723936 43.055320 -2.7
-70.721769 43.055322 -2.4
-70.725530 43.055322 -2.4
-70.725986 43.055325 -0.3
-70.726530 43.055325 -0.6
-70.718364 43.055333 -2.4
-70.718008 43.055347 -2.4
-70.718997 43.055350 -1.5
-70.727008 43.055353 -0.3
-70.716196 43.055361 -4.0
-70.726928 43.055375 -0.3
-70.717603 43.055381 -3.4
-70.726700 43.055381 -0.6
-70.725797 43.055389 -0.6
-70.724322 43.055395 -2.4
-70.720258 43.055403 -2.4
-70.724905 43.055406 -2.4
-70.718730 43.055414 -1.8
-70.725658 43.055414 -0.6
-70.723225 43.055417 -2.7
-70.726258 43.055417 -0.6
-70.722900 43.055420 -2.1
-70.717236 43.055422 -3.4
-70.722541 43.055433 -2.4
-70.716504 43.055436 -4.0
-70.725191 43.055436 -1.8
-70.722147 43.055445 -2.4
-70.723583 43.055445 -3.0
-70.720611 43.055447 -2.7
-70.725508 43.055450 -0.6
-70.721386 43.055453 -2.4
-70.721780 43.055456 -2.4
-70.725333 43.055456 -1.5
-70.716827 43.055458 -3.4
-70.724186 43.055458 -3.0
-70.723883 43.055461 -2.7
-70.724697 43.055464 -2.4
-70.721019 43.055467 -2.4
-70.727186 43.055470 -0.3
-70.725097 43.055483 -2.1
-70.726855 43.055483 -0.3
-70.724469 43.055489 -2.7
-70.719758 43.055492 -2.4
-70.720153 43.055492 -2.4
-70.718361 43.055500 -2.1
-70.719116 43.055503 -2.1
-70.719308 43.055503 -2.1
-70.722730 43.055511 -1.8
-70.718903 43.055522 -2.1
-70.724941 43.055525 -2.1
-70.718458 43.055533 -2.4
-70.718064 43.055536 -2.4
-70.725219 43.055542 -1.8
-70.725819 43.055542 -1.2
-70.717653 43.055550 -2.7
-70.725522 43.055553 -1.2
-70.726389 43.055558 -0.3
-70.727961 43.055558 0.0
-70.722225 43.055561 -2.1
-70.726969 43.055561 -0.2
-70.716393 43.055564 -5.5
-70.725939 43.055564 -0.9
-70.719461 43.055575 -2.1
-70.722911 43.055578 -2.7
-70.726122 43.055578 -0.6
-70.724797 43.055586 -2.7
-70.727733 43.055586 -0.3
-70.726661 43.055589 -0.3
-70.717330 43.055592 -3.4
-70.721047 43.055592 -2.4
-70.727530 43.055592 -0.3
-70.724400 43.055595 -3.0
-70.723975 43.055603 -3.0
-70.719125 43.055606 -2.1
-70.727272 43.055606 -0.3
-70.721797 43.055608 -3.0
-70.727397 43.055608 -0.2
-70.723358 43.055611 -2.7
-70.726222 43.055614 -0.6
-70.723555 43.055631 -3.0
-70.725378 43.055633 -2.7
-70.722489 43.055653 -1.8
-70.723105 43.055653 -3.0
-70.716953 43.055656 -4.9
-70.725989 43.055656 -2.7
-70.727191 43.055656 0.0
-70.723800 43.055661 -3.0
-70.724278 43.055672 -3.0
-70.725497 43.055675 -3.4
-70.726344 43.055681 -1.5
-70.722039 43.055683 -3.0
-70.722741 43.055686 -2.1
-70.716632 43.055689 -5.5
-70.720264 43.055697 -2.7
-70.725028 43.055700 -3.0
-70.726955 43.055703 0.0
-70.722253 43.055714 -3.0
-70.724575 43.055714 -3.0
-70.725805 43.055714 -3.7
-70.721583 43.055717 -3.7
-70.724725 43.055725 -2.7
-70.716282 43.055736 -5.2
-70.726636 43.055745 -0.3
-70.721764 43.055753 -3.7
-70.727464 43.055753 0.2
-70.716463 43.055767 -5.8
-70.724886 43.055770 -2.1
-70.716783 43.055778 -5.5
-70.718330 43.055789 -2.4
-70.720975 43.055792 -3.7
-70.721294 43.055797 -3.7
-70.726150 43.055797 -2.1
-70.725297 43.055808 -3.4
-70.725575 43.055808 -3.7
-70.722728 43.055811 -3.0
-70.725947 43.055828 -3.7
-70.726619 43.055828 -0.6
-70.719053 43.055842 -2.7
-70.720825 43.055845 -3.7
-70.726961 43.055856 -0.2
-70.727630 43.055856 0.2
-70.718678 43.055858 -3.0
-70.724430 43.055858 -3.0
-70.720439 43.055870 -3.7
-70.720030 43.055875 -3.7
-70.717861 43.055883 -4.3
-70.719850 43.055886 -3.4
-70.723983 43.055886 -3.0
-70.721830 43.055889 -3.7
-70.719336 43.055895 -3.4
-70.719514 43.055900 -3.4
-70.723539 43.055906 -3.0
-70.726128 43.055908 -2.7
-70.726808 43.055914 -0.6
-70.725008 43.055922 -2.1
-70.719153 43.055928 -3.0
-70.726611 43.055933 -1.8
-70.723122 43.055936 -3.0
-70.718547 43.055953 -3.0
-70.718753 43.055953 -3.7
-70.725383 43.055953 -1.8
-70.722678 43.055956 -3.7
-70.718297 43.055961 -4.3
-70.722253 43.055961 -3.4
-70.716382 43.055967 -4.9
-70.717425 43.055972 -5.2
-70.726930 43.055972 -0.9
-70.717839 43.055975 -4.9
-70.724641 43.055978 -1.8
-70.716535 43.055983 -4.6
-70.717005 43.055983 -5.2
-70.721800 43.055989 -3.4
-70.716174 43.056000 -4.3
-70.725880 43.056000 -3.0
-70.727014 43.056006 -0.3
-70.724911 43.056008 -3.0
-70.720211 43.056011 -4.6
-70.724789 43.056011 -2.7
-70.721372 43.056017 -3.7
-70.727853 43.056017 0.2
-70.723503 43.056020 -2.7
-70.727361 43.056025 0.0
-70.726816 43.056031 -2.1
-70.726428 43.056033 -2.4
-70.720841 43.056036 -4.3
-70.719291 43.056047 -5.2
-70.726580 43.056050 -3.0
-70.720403 43.056070 -4.6
-70.722730 43.056070 -3.7
-70.726250 43.056070 -2.1
-70.725261 43.056078 -2.4
-70.725364 43.056083 -2.4
-70.724219 43.056086 -2.4
-70.718319 43.056092 -5.2
-70.725055 43.056097 -3.0
-70.725541 43.056097 -2.4
-70.724530 43.056103 -1.5
-70.719933 43.056108 -4.6
-70.725775 43.056108 -2.1
-70.727050 43.056114 -1.2
-70.722986 43.056120 -2.1
-70.723833 43.056122 -1.5
-70.717466 43.056147 -4.9
-70.719550 43.056150 -5.2
-70.722591 43.056150 -2.7
-70.725936 43.056150 -2.1
-70.726583 43.056158 -2.1
-70.725416 43.056170 -3.0
-70.718561 43.056175 -4.6
-70.719305 43.056178 -4.9
-70.721833 43.056178 -2.7
-70.726125 43.056178 -2.7
-70.718097 43.056186 -4.9
-70.719011 43.056192 -4.9
-70.721469 43.056197 -2.7
-70.717186 43.056206 -4.6
-70.726922 43.056206 -2.4
-70.723403 43.056208 -2.1
-70.725666 43.056208 -3.0
-70.722819 43.056211 -2.0
-70.720139 43.056214 -4.0
-70.716733 43.056217 -4.3
-70.717650 43.056217 -4.9
-70.721058 43.056217 -3.0
-70.727136 43.056217 -1.8
-70.720619 43.056225 -3.7
-70.716274 43.056231 -3.7
-70.726694 43.056231 -2.4
-70.728044 43.056231 0.2
-70.721166 43.056236 -2.7
-70.723111 43.056236 -2.4
-70.722144 43.056245 -2.7
-70.722466 43.056245 -2.4
-70.719886 43.056250 -4.6
-70.724472 43.056250 -1.5
-70.724128 43.056258 -1.8
-70.720808 43.056267 -2.7
-70.717455 43.056270 -4.6
-70.717908 43.056272 -5.2
-70.719433 43.056281 -4.6
-70.718300 43.056286 -4.6
-70.721866 43.056286 -2.7
-70.724836 43.056289 -0.9
-70.725789 43.056289 -3.0
-70.722686 43.056300 -2.4
-70.720491 43.056303 -3.4
-70.723469 43.056303 -0.9
-70.725133 43.056303 -0.3
-70.718708 43.056306 -4.6
-70.727389 43.056308 -1.5
-70.727069 43.056314 -3.4
-70.727264 43.056314 -3.0
-70.726158 43.056317 -3.0
-70.725447 43.056322 -2.4
-70.728625 43.056322 0.6
-70.727647 43.056328 -0.3
-70.728208 43.056331 0.6
-70.725275 43.056336 -1.2
-70.728030 43.056336 0.3
-70.717778 43.056339 -4.3
-70.720683 43.056339 -2.7
-70.726858 43.056342 -3.0
-70.725922 43.056350 -3.4
-70.720205 43.056353 -2.7
-70.724575 43.056358 -0.6
-70.721125 43.056361 -2.7
-70.723766 43.056364 -0.6
-70.726403 43.056370 -3.7
-70.722522 43.056372 -1.8
-70.721622 43.056381 -2.1
-70.719472 43.056383 -4.6
-70.721350 43.056386 -1.5
-70.722053 43.056386 -1.8
-70.718022 43.056389 -4.0
-70.719716 43.056389 -3.0
-70.723483 43.056392 -0.9
-70.726566 43.056392 -3.4
-70.719278 43.056403 -2.7
-70.723889 43.056403 -0.9
-70.719019 43.056408 -3.0
-70.723319 43.056408 -0.6
-70.724941 43.056408 -0.2
-70.719947 43.056411 -2.4
-70.722997 43.056411 -0.9
-70.718300 43.056414 -3.0
-70.718728 43.056414 -3.0
-70.720775 43.056417 -1.5
-70.716741 43.056422 -2.7
-70.717422 43.056422 -3.4
-70.717075 43.056425 -3.0
-70.722716 43.056428 -1.2
-70.716286 43.056436 -2.4
-70.728280 43.056436 0.0
-70.716444 43.056439 -2.4
-70.722483 43.056442 -1.1
-70.727433 43.056442 -3.0
-70.717858 43.056447 -3.7
-70.726878 43.056447 -3.4
-70.724253 43.056450 -0.9
-70.721741 43.056453 -0.6
-70.725578 43.056453 -2.4
-70.725191 43.056464 -0.2
-70.721839 43.056470 -0.9
-70.724741 43.056472 0.2
-70.720883 43.056475 -1.2
-70.722144 43.056478 -0.9
-70.724586 43.056478 -0.3
-70.725425 43.056478 -0.6
-70.724472 43.056492 -0.3
-70.720500 43.056495 -1.8
-70.727539 43.056495 -2.4
-70.721328 43.056500 -1.8
-70.727030 43.056506 -3.7
-70.719225 43.056511 -2.4
-70.726205 43.056511 -3.7
-70.718108 43.056514 -2.4
-70.723500 43.056528 -0.9
-70.723964 43.056533 -0.6
-70.720116 43.056536 -1.8
-70.725808 43.056536 -1.8
-70.720325 43.056547 -1.8
-70.719908 43.056556 -1.8
-70.724900 43.056558 -0.3
-70.726761 43.056561 -5.2
-70.723080 43.056564 -0.9
-70.719114 43.056567 -2.1
-70.720716 43.056570 -1.5
-70.722641 43.056570 -1.2
-70.719350 43.056578 -3.7
-70.725100 43.056583 -0.3
-70.717914 43.056586 -2.4
-70.716311 43.056589 -1.8
-70.716647 43.056589 -2.1
-70.719528 43.056589 -1.8
-70.717069 43.056595 -2.1
-70.718744 43.056597 -2.1
-70.717500 43.056606 -2.1
-70.722253 43.056614 -0.9
-70.721714 43.056622 -0.6
-70.718336 43.056631 -1.8
-70.723503 43.056639 -0.6
-70.726878 43.056642 -4.0
-70.726425 43.056645 -4.6
-70.728480 43.056650 0.0
-70.721186 43.056658 -0.9
-70.727686 43.056661 -3.4
-70.719833 43.056667 -1.8
-70.724464 43.056670 -0.3
-70.726561 43.056670 -5.2
-70.725497 43.056672 -0.9
-70.719189 43.056675 -1.8
-70.721855 43.056678 -0.3
-70.720305 43.056681 -1.8
-70.720772 43.056686 -1.8
-70.717505 43.056692 -1.8
-70.717997 43.056695 -1.8
-70.719375 43.056695 -1.8
-70.727833 43.056695 -3.4
-70.725036 43.056697 -0.2
-70.716214 43.056700 -1.8
-70.716666 43.056700 -1.5
-70.718866 43.056700 -1.8
-70.717091 43.056708 -1.8
-70.727266 43.056708 -3.7
-70.727025 43.056720 -4.6
-70.718489 43.056725 -1.8
-70.720061 43.056731 -0.9
-70.725686 43.056736 -0.2
-70.725930 43.056764 -0.9
-70.726136 43.056764 -2.4
-70.728400 43.056767 0.0
-70.725436 43.056797 0.0
-70.722722 43.056800 -0.6
-70.726647 43.056803 -4.0
-70.718386 43.056811 -1.2
-70.724903 43.056814 -0.3
-70.726886 43.056817 -4.9
-70.720594 43.056820 -1.2
-70.719133 43.056822 -1.2
-70.723466 43.056833 -0.3
-70.727183 43.056836 -3.8
-70.728064 43.056845 -2.7
-70.725794 43.056856 -0.2
-70.727911 43.056867 -3.0
-70.726144 43.056872 -0.3
-70.718853 43.056875 -1.2
-70.728633 43.056906 -0.2
-70.726747 43.056911 -4.6
-70.721814 43.056917 -0.6
-70.720586 43.056939 -0.6
-70.726508 43.056947 -2.1
-70.725580 43.056956 0.0
-70.727558 43.056956 -4.0
-70.720097 43.056964 -0.6
-70.727428 43.056986 -4.0
-70.726975 43.056997 -4.3
-70.728303 43.057000 -1.2
-70.718997 43.057003 -0.9
-70.728108 43.057003 -2.4
-70.726069 43.057033 -0.2
-70.718411 43.057042 -0.6
-70.722716 43.057058 -0.3
-70.719203 43.057061 -2.1
-70.727761 43.057083 -3.7
-70.720541 43.057100 -0.9
-70.725469 43.057103 0.3
-70.725808 43.057103 0.2
-70.728850 43.057111 -0.3
-70.720075 43.057114 -0.9
-70.728236 43.057128 -2.4
-70.719394 43.057131 -0.6
-70.726814 43.057142 -1.8
-70.721811 43.057145 -0.3
-70.728386 43.057147 -1.8
-70.726103 43.057161 0.3
-70.727661 43.057178 -4.6
-70.726466 43.057181 0.0
-70.727844 43.057181 -4.0
-70.719147 43.057183 -0.9
-70.727289 43.057192 -3.7
-70.728391 43.057231 -1.2
-70.718422 43.057236 -0.3
-70.720064 43.057236 -0.9
-70.719655 43.057253 -0.9
-70.728658 43.057278 -2.4
-70.728158 43.057314 -1.8
-70.727964 43.057317 -4.3
-70.719858 43.057339 -0.6
-70.719116 43.057345 -0.6
-70.721780 43.057347 -0.3
-70.720097 43.057358 -0.6
-70.728653 43.057372 -1.2
-70.729103 43.057375 -0.3
-70.727539 43.057378 -3.4
-70.726850 43.057397 0.2
-70.716972 43.057408 0.2
-70.718419 43.057422 -0.3
-70.717247 43.057442 -0.2
-70.727683 43.057442 -3.4
-70.728225 43.057447 -1.2
-70.717591 43.057481 -0.2
-70.728664 43.057481 -1.2
-70.717919 43.057492 0.0
-70.720097 43.057495 -0.3
-70.720278 43.057511 -0.6
-70.718261 43.057531 0.0
-70.727791 43.057539 -1.2
-70.719122 43.057545 -0.6
-70.718616 43.057564 -0.3
-70.728091 43.057572 -0.9
-70.718986 43.057586 -0.6
-70.718444 43.057589 0.0
-70.720478 43.057595 -0.6
-70.728439 43.057625 -1.2
-70.719325 43.057642 -0.2
-70.727989 43.057664 -0.9
-70.720697 43.057675 -0.3
-70.728908 43.057683 -1.2
-70.718533 43.057767 -0.2
-70.728716 43.057772 -1.8
-70.728580 43.057792 -1.2
-70.727969 43.057797 -0.6
-70.728222 43.057825 -0.9
-70.729200 43.057889 -1.2
-70.718503 43.057900 0.0
-70.728339 43.057933 -0.9
-70.728764 43.057947 -1.2
-70.729036 43.058000 -2.4
-70.727950 43.058003 -0.6
-70.718544 43.058095 0.3
-70.729039 43.058103 -1.8
-70.728636 43.058117 -0.6
-70.728769 43.058133 -0.9
-70.728944 43.058136 -0.9
-70.729219 43.058170 -2.1
-70.727858 43.058186 -0.3
-70.718583 43.058258 0.3
-70.728464 43.058272 -0.3
-70.728880 43.058272 -0.6
-70.718616 43.058425 0.6
