-70.704374 43.058053 -16.8
-70.707771 43.058086 -13.7
-70.706079 43.058089 -16.5
-70.709360 43.058095 -9.4
-70.702621 43.058117 -12.8
-70.705863 43.058142 -16.5
-70.704154 43.058145 -16.5
-70.709121 43.058145 -10.1
-70.707554 43.058181 -14.3
-70.710404 43.058192 -2.1
-70.710993 43.058195 -3.0
-70.703868 43.058200 -15.8
-70.702379 43.058206 -12.2
-70.705640 43.058217 -16.8
-70.708913 43.058239 -11.0
-70.707282 43.058247 -14.6
-70.710757 43.058264 -2.7
-70.705415 43.058270 -17.1
-70.702121 43.058278 -11.9
-70.708738 43.058281 -11.3
-70.703613 43.058297 -15.5
-70.710607 43.058306 -3.0
-70.706982 43.058311 -15.2
-70.705204 43.058339 -17.1
-70.708549 43.058358 -11.3
-70.699679 43.058361 -9.8
-70.701910 43.058361 -11.3
-70.701157 43.058364 -10.4
-70.700227 43.058372 -9.8
-70.700682 43.058372 -9.8
-70.702540 43.058378 -12.8
-70.710385 43.058383 -3.4
-70.703335 43.058389 -14.9
-70.706707 43.058392 -15.5
-70.701663 43.058408 -10.7
-70.704968 43.058420 -17.4
-70.708324 43.058422 -12.2
-70.710210 43.058442 -4.3
-70.708882 43.058453 -10.1
-70.704713 43.058458 -17.7
-70.703060 43.058467 -14.0
-70.706415 43.058470 -16.2
-70.701415 43.058483 -10.7
-70.708140 43.058489 -12.5
-70.709971 43.058506 -6.1
-70.701240 43.058531 -10.1
-70.702785 43.058531 -13.4
-70.704529 43.058536 -17.7
-70.707943 43.058536 -12.8
-70.706115 43.058545 -16.5
-70.709774 43.058572 -6.1
-70.707682 43.058592 -13.4
-70.702568 43.058595 -12.5
-70.704332 43.058595 -18.0
-70.700957 43.058606 -9.8
-70.705865 43.058620 -16.8
-70.709615 43.058625 -4.6
-70.710785 43.058642 -1.8
-70.704107 43.058661 -17.7
-70.700752 43.058667 -9.4
-70.707507 43.058670 -13.7
-70.708877 43.058672 -8.5
-70.705590 43.058689 -16.8
-70.702290 43.058695 -11.6
-70.709410 43.058708 -6.4
-70.703888 43.058720 -17.4
-70.710532 43.058731 -3.0
-70.707299 43.058739 -13.7
-70.700504 43.058745 -9.1
-70.702002 43.058753 -11.0
-70.705310 43.058767 -17.1
-70.703704 43.058772 -16.8
-70.709177 43.058781 -8.2
-70.707049 43.058786 -14.3
-70.708874 43.058786 -7.9
-70.710340 43.058789 -4.9
-70.701774 43.058800 -10.7
-70.700224 43.058808 -8.8
-70.703507 43.058811 -16.2
-70.705865 43.058822 -16.2
-70.710115 43.058850 -5.5
-70.706821 43.058858 -14.6
-70.700032 43.058870 -8.5
-70.701485 43.058870 -10.4
-70.705054 43.058872 -17.4
-70.703282 43.058878 -15.5
-70.708885 43.058878 -9.1
-70.706621 43.058903 -15.2
-70.709896 43.058911 -5.2
-70.699782 43.058922 -8.2
-70.703074 43.058922 -14.9
-70.704804 43.058925 -18.0
-70.708660 43.058925 -10.1
-70.701249 43.058933 -9.8
-70.709760 43.058961 -4.0
-70.699557 43.058967 -7.9
-70.700277 43.058978 -8.8
-70.706371 43.058981 -15.8
-70.700990 43.058995 -9.8
-70.701590 43.058997 -10.4
-70.704513 43.058997 -18.0
-70.702863 43.059000 -14.0
-70.708365 43.059000 -11.0
-70.709468 43.059033 -7.0
-70.706160 43.059045 -16.2
-70.711254 43.059058 0.9
-70.700771 43.059067 -9.1
-70.702665 43.059070 -13.1
-70.704263 43.059081 -18.0
-70.708079 43.059081 -11.9
-70.709246 43.059092 -7.6
-70.711054 43.059095 0.3
-70.708857 43.059103 -8.5
-70.705949 43.059114 -16.8
-70.707763 43.059120 -12.2
-70.702396 43.059133 -12.2
-70.711965 43.059147 -1.5
-70.700521 43.059153 -8.8
-70.709057 43.059158 -7.6
-70.710832 43.059158 -0.2
-70.704002 43.059164 -17.4
-70.705738 43.059167 -17.1
-70.702182 43.059172 -11.6
-70.707513 43.059214 -12.5
-70.700260 43.059220 -8.2
-70.710579 43.059225 -0.9
-70.701960 43.059228 -11.0
-70.705518 43.059228 -17.4
-70.703718 43.059264 -16.8
-70.711579 43.059267 0.3
-70.700052 43.059275 -7.6
-70.705238 43.059289 -17.7
-70.710357 43.059295 -0.9
-70.701721 43.059303 -10.7
-70.703468 43.059311 -16.5
-70.708599 43.059311 -9.4
-70.707263 43.059317 -12.8
-70.708840 43.059333 -7.0
-70.710146 43.059339 -3.4
-70.705057 43.059347 -17.7
-70.699785 43.059353 -7.0
-70.708374 43.059370 -10.1
-70.711152 43.059372 -0.3
-70.701504 43.059375 -10.1
-70.706960 43.059381 -13.4
-70.712757 43.059383 0.3
-70.703235 43.059414 -16.2
-70.709882 43.059417 -4.6
-70.701265 43.059420 -9.8
-70.706685 43.059431 -14.0
-70.708154 43.059433 -10.7
-70.704821 43.059447 -18.3
-70.712529 43.059447 0.9
-70.710946 43.059464 -0.9
-70.712363 43.059475 0.0
-70.701029 43.059478 -9.4
-70.709668 43.059486 -5.2
-70.710735 43.059486 -1.8
-70.700274 43.059489 -8.5
-70.706429 43.059489 -14.6
-70.699907 43.059497 -7.6
-70.702940 43.059497 -15.2
-70.707932 43.059506 -11.0
-70.700840 43.059520 -9.1
-70.701863 43.059528 -11.0
-70.707671 43.059533 -11.6
-70.709485 43.059536 -4.6
-70.701521 43.059539 -10.4
-70.704360 43.059539 -18.3
-70.710529 43.059542 -2.4
-70.712152 43.059547 -2.1
-70.708854 43.059558 -7.9
-70.702729 43.059570 -14.0
-70.706163 43.059575 -15.5
-70.709229 43.059589 -5.5
-70.700599 43.059592 -8.8
-70.707460 43.059592 -11.9
-70.710354 43.059595 -3.7
-70.711952 43.059603 -2.7
-70.707229 43.059633 -12.2
-70.702449 43.059645 -12.8
-70.705888 43.059658 -16.2
-70.700377 43.059661 -8.5
-70.711738 43.059670 -3.4
-70.703954 43.059675 -18.3
-70.708815 43.059686 -5.8
-70.710121 43.059689 -3.4
-70.707004 43.059692 -12.5
-70.711532 43.059703 -1.8
-70.702224 43.059706 -11.9
-70.700132 43.059711 -7.9
-70.705615 43.059722 -16.5
-70.709918 43.059728 -4.6
-70.703721 43.059731 -18.0
-70.706774 43.059747 -12.8
-70.711332 43.059778 -0.9
-70.709707 43.059786 -5.2
-70.699910 43.059792 -7.6
-70.703490 43.059800 -18.0
-70.706510 43.059800 -13.4
-70.701949 43.059803 -10.7
-70.705340 43.059814 -17.1
-70.708399 43.059814 -7.6
-70.709524 43.059850 -6.1
-70.711093 43.059853 -4.9
-70.699704 43.059861 -7.0
-70.701660 43.059861 -10.1
-70.703288 43.059870 -17.4
-70.700215 43.059878 -8.5
-70.708149 43.059881 -9.1
-70.700674 43.059883 -8.8
-70.706310 43.059883 -14.3
-70.705099 43.059897 -18.0
-70.707840 43.059922 -10.7
-70.710835 43.059928 -5.8
-70.709268 43.059931 -6.7
-70.701440 43.059933 -9.4
-70.703035 43.059933 -16.8
-70.706088 43.059956 -14.9
-70.708854 43.059956 -5.5
-70.704868 43.059970 -18.3
-70.709077 43.059986 -7.3
-70.702832 43.059997 -15.2
-70.707571 43.060003 -10.1
-70.710549 43.060003 -6.4
-70.705871 43.060025 -15.2
-70.701221 43.060036 -9.1
-70.704588 43.060053 -18.3
-70.702602 43.060056 -14.6
-70.707315 43.060072 -11.3
-70.710354 43.060078 -5.8
-70.705649 43.060081 -15.8
-70.708846 43.060081 -6.7
-70.700949 43.060122 -8.8
-70.702377 43.060122 -13.4
-70.704335 43.060142 -18.6
-70.705449 43.060142 -16.8
-70.708604 43.060142 -7.6
-70.707057 43.060153 -11.0
-70.710057 43.060156 -6.7
-70.702135 43.060178 -11.9
-70.700668 43.060181 -8.8
-70.705243 43.060189 -17.4
-70.708357 43.060208 -7.0
-70.704063 43.060214 -18.9
-70.712344 43.060214 -1.8
-70.708846 43.060220 -6.4
-70.706771 43.060222 -11.3
-70.705015 43.060247 -18.0
-70.709832 43.060247 -6.1
-70.711985 43.060250 -1.2
-70.700432 43.060253 -8.2
-70.701915 43.060258 -10.7
-70.712174 43.060258 -1.5
-70.703807 43.060295 -18.9
-70.706502 43.060295 -10.7
-70.708163 43.060297 -8.2
-70.711827 43.060311 -0.3
-70.700188 43.060314 -7.9
-70.704813 43.060317 -18.0
-70.711671 43.060328 -1.8
-70.709565 43.060339 -7.6
-70.701654 43.060345 -9.8
-70.707935 43.060358 -8.2
-70.704646 43.060370 -18.6
-70.703540 43.060383 -18.3
-70.711488 43.060392 -0.6
-70.706221 43.060397 -12.5
-70.701435 43.060403 -9.4
-70.709340 43.060406 -7.6
-70.699949 43.060411 -7.6
-70.707702 43.060411 -8.5
-70.703288 43.060428 -17.7
-70.704396 43.060433 -18.9
-70.711060 43.060439 -0.9
-70.708824 43.060453 -7.3
-70.701210 43.060456 -9.1
-70.707463 43.060458 -9.4
-70.699679 43.060470 -7.0
-70.705927 43.060483 -14.3
-70.709060 43.060492 -8.2
-70.710854 43.060495 -3.0
-70.704174 43.060497 -19.2
-70.703021 43.060506 -17.7
-70.707288 43.060525 -10.1
-70.700977 43.060533 -8.2
-70.710632 43.060542 -4.0
-70.700740 43.060556 -8.2
-70.705685 43.060558 -15.8
-70.702743 43.060561 -16.2
-70.710463 43.060572 -2.7
-70.703729 43.060592 -19.2
-70.707077 43.060603 -10.4
-70.700477 43.060608 -8.2
-70.708543 43.060633 -8.8
-70.702479 43.060642 -14.9
-70.705407 43.060650 -16.8
-70.710110 43.060658 -5.5
-70.706838 43.060664 -10.7
-70.702229 43.060672 -13.4
-70.700263 43.060681 -7.9
-70.708824 43.060683 -8.2
-70.703513 43.060689 -18.6
-70.708254 43.060717 -9.1
-70.700621 43.060720 -7.9
-70.705121 43.060722 -17.7
-70.700010 43.060739 -7.6
-70.702002 43.060745 -11.9
-70.703293 43.060747 -18.3
-70.706663 43.060750 -11.6
-70.709840 43.060753 -5.8
-70.708018 43.060775 -9.4
-70.704813 43.060786 -18.0
-70.701735 43.060808 -10.4
-70.703065 43.060811 -18.0
-70.699760 43.060828 -7.6
-70.706460 43.060831 -12.8
-70.709565 43.060836 -6.4
-70.707740 43.060842 -9.4
-70.704565 43.060867 -18.9
-70.702852 43.060870 -16.8
-70.701471 43.060881 -9.8
-70.706224 43.060883 -13.4
-70.711268 43.060886 0.9
-70.700660 43.060897 -7.6
-70.709332 43.060911 -6.1
-70.707493 43.060922 -10.1
-70.708824 43.060925 -7.9
-70.702599 43.060939 -15.5
-70.704310 43.060942 -19.2
-70.701218 43.060961 -9.4
-70.706038 43.060961 -14.3
-70.710885 43.060978 -3.0
-70.702388 43.060997 -14.6
-70.709077 43.060997 -6.7
-70.700999 43.061003 -8.8
-70.704046 43.061008 -19.8
-70.707213 43.061017 -10.1
-70.710677 43.061022 -3.7
-70.705785 43.061047 -15.2
-70.700699 43.061067 -7.6
-70.703785 43.061067 -19.5
-70.706979 43.061070 -11.0
-70.702179 43.061072 -12.8
-70.710496 43.061075 -3.0
-70.708857 43.061086 -7.6
-70.705568 43.061111 -16.2
-70.701927 43.061114 -11.9
-70.700468 43.061128 -6.1
-70.703527 43.061145 -19.2
-70.710199 43.061153 -2.1
-70.708596 43.061158 -7.3
-70.706715 43.061161 -11.6
-70.700196 43.061172 -6.7
-70.705365 43.061172 -16.5
-70.710071 43.061175 -3.4
-70.701693 43.061178 -10.7
-70.703260 43.061220 -18.9
-70.700415 43.061222 -6.4
-70.699977 43.061228 -6.1
-70.708346 43.061228 -7.6
-70.709857 43.061233 -3.7
-70.706499 43.061239 -13.1
-70.701460 43.061256 -10.1
-70.700835 43.061258 -8.2
-70.705132 43.061258 -17.4
-70.709668 43.061286 -5.2
-70.702990 43.061289 -18.0
-70.699699 43.061300 -6.4
-70.711719 43.061308 0.9
-70.708071 43.061311 -8.5
-70.701221 43.061314 -9.4
-70.711536 43.061325 -0.9
-70.704940 43.061333 -18.0
-70.706221 43.061336 -13.7
-70.709446 43.061342 -6.7
-70.711347 43.061345 -1.2
-70.700107 43.061350 -5.8
-70.702738 43.061364 -17.1
-70.707768 43.061375 -8.5
-70.712219 43.061381 1.2
-70.708802 43.061392 -6.7
-70.701010 43.061397 -8.8
-70.700521 43.061406 -5.5
-70.704707 43.061408 -18.9
-70.711141 43.061417 0.3
-70.705918 43.061420 -14.6
-70.707540 43.061428 -9.1
-70.711019 43.061442 0.3
-70.709143 43.061445 -6.7
-70.702521 43.061447 -15.5
-70.700749 43.061464 -6.7
-70.700165 43.061467 -6.1
-70.710796 43.061467 -2.1
-70.704507 43.061489 -19.2
-70.705679 43.061492 -15.8
-70.710638 43.061495 -1.5
-70.707288 43.061497 -9.8
-70.708838 43.061511 -7.6
-70.710410 43.061511 -0.9
-70.700543 43.061514 -6.1
-70.711716 43.061514 -0.9
-70.702260 43.061517 -13.4
-70.704299 43.061556 -19.5
-70.708657 43.061556 -7.6
-70.701002 43.061558 -8.5
-70.705402 43.061572 -16.8
-70.707010 43.061572 -10.7
-70.711491 43.061586 -0.9
-70.702015 43.061597 -12.2
-70.704088 43.061628 -19.5
-70.708796 43.061628 -7.6
-70.708463 43.061633 -5.8
-70.700104 43.061636 -3.0
-70.700307 43.061636 -4.0
-70.705107 43.061636 -17.1
-70.709999 43.061642 -2.4
-70.700640 43.061645 -7.9
-70.706738 43.061645 -11.6
-70.699849 43.061661 -3.0
-70.711289 43.061661 -1.5
-70.706490 43.061686 -11.9
-70.701704 43.061692 -11.3
-70.708229 43.061697 -7.0
-70.699632 43.061714 -3.4
-70.703813 43.061714 -19.8
-70.704896 43.061725 -18.3
-70.709768 43.061725 -4.6
-70.711072 43.061728 -1.5
-70.701040 43.061731 -8.5
-70.701474 43.061761 -10.1
-70.708015 43.061767 -7.0
-70.706204 43.061770 -13.4
-70.703565 43.061795 -19.5
-70.710803 43.061795 -2.1
-70.704690 43.061797 -19.2
-70.707768 43.061797 -7.3
-70.701240 43.061836 -8.8
-70.709524 43.061839 -6.4
-70.708763 43.061842 -6.7
-70.710589 43.061850 -2.1
-70.700774 43.061853 -7.9
-70.703365 43.061853 -19.2
-70.705957 43.061853 -14.3
-70.700388 43.061861 -5.5
-70.707552 43.061861 -8.8
-70.704424 43.061883 -19.8
-70.700993 43.061917 -8.2
-70.703146 43.061917 -18.6
-70.710407 43.061917 -2.7
-70.705665 43.061920 -15.2
-70.709313 43.061922 -6.7
-70.707404 43.061928 -10.1
-70.700496 43.061964 -7.0
-70.705435 43.061970 -16.2
-70.707177 43.061970 -10.4
-70.700799 43.061972 -7.3
-70.702927 43.061975 -18.0
-70.710179 43.061983 -2.7
-70.699610 43.061995 -0.9
-70.699982 43.061995 -3.4
-70.712478 43.062000 -1.2
-70.709110 43.062006 -6.4
-70.703315 43.062017 -18.6
-70.703882 43.062028 -19.8
-70.705199 43.062033 -17.1
-70.706985 43.062039 -9.1
-70.709968 43.062039 -4.0
-70.712291 43.062039 -1.8
-70.702690 43.062047 -17.1
-70.701235 43.062061 -9.4
-70.700532 43.062081 -6.7
-70.703046 43.062081 -17.7
-70.708968 43.062083 -5.5
-70.708749 43.062086 -6.4
-70.709777 43.062095 -5.8
-70.712083 43.062095 -2.4
-70.699646 43.062103 -2.1
-70.704957 43.062103 -17.7
-70.700896 43.062106 -8.2
-70.703627 43.062108 -19.5
-70.702482 43.062111 -15.8
-70.706732 43.062111 -8.8
-70.700257 43.062142 -4.0
-70.706549 43.062147 -11.0
-70.711891 43.062147 -2.4
-70.709557 43.062150 -6.1
-70.702707 43.062158 -16.5
-70.704685 43.062164 -18.9
-70.702227 43.062181 -14.3
-70.703365 43.062195 -19.2
-70.711672 43.062195 -3.0
-70.700629 43.062203 -7.3
-70.699993 43.062214 -3.7
-70.702538 43.062214 -16.2
-70.708518 43.062217 -7.6
-70.706340 43.062228 -12.2
-70.709313 43.062228 -7.6
-70.704413 43.062231 -19.5
-70.701310 43.062236 -10.1
-70.701982 43.062239 -13.4
-70.711475 43.062247 -3.0
-70.702365 43.062250 -15.2
-70.705513 43.062258 -15.8
-70.706138 43.062275 -13.1
-70.703752 43.062289 -19.2
-70.711239 43.062292 -2.4
-70.701738 43.062297 -12.2
-70.709085 43.062297 -7.6
-70.699779 43.062300 -3.4
-70.703113 43.062303 -18.6
-70.708221 43.062306 -9.1
-70.702124 43.062314 -14.6
-70.700188 43.062317 -4.0
-70.705949 43.062320 -13.7
-70.700996 43.062328 -8.5
-70.711019 43.062333 -2.4
-70.705218 43.062336 -15.8
-70.699524 43.062339 -3.0
-70.712541 43.062342 0.0
-70.700704 43.062353 -7.0
-70.703418 43.062356 -18.9
-70.702893 43.062358 -17.7
-70.708865 43.062361 -7.9
-70.705738 43.062372 -14.9
-70.708013 43.062372 -9.4
-70.701493 43.062383 -11.0
-70.703896 43.062386 -19.5
-70.710797 43.062392 -3.4
-70.712389 43.062395 -0.2
-70.704118 43.062400 -19.2
-70.701810 43.062408 -12.5
-70.707768 43.062420 -10.1
-70.701229 43.062425 -10.4
-70.705479 43.062428 -15.8
-70.708618 43.062431 -8.2
-70.703088 43.062439 -18.3
-70.702632 43.062447 -16.5
-70.704885 43.062447 -16.5
-70.712141 43.062461 -0.3
-70.710583 43.062464 -2.7
-70.703635 43.062467 -19.5
-70.707535 43.062467 -10.4
-70.700310 43.062475 -3.7
-70.705299 43.062478 -15.8
-70.708443 43.062478 -8.8
-70.700754 43.062481 -5.5
-70.699893 43.062503 -4.0
-70.700979 43.062503 -8.5
-70.703396 43.062511 -18.9
-70.702374 43.062517 -15.5
-70.711953 43.062517 -0.9
-70.699677 43.062522 -3.4
-70.702774 43.062528 -17.1
-70.710333 43.062531 -4.3
-70.701182 43.062533 -9.4
-70.707310 43.062533 -11.0
-70.705093 43.062536 -16.2
-70.708249 43.062536 -9.4
-70.704563 43.062545 -18.0
-70.708727 43.062550 -7.9
-70.703135 43.062575 -18.0
-70.711747 43.062583 -0.3
-70.700718 43.062589 -6.4
-70.707079 43.062589 -11.6
-70.701529 43.062597 -10.7
-70.704910 43.062600 -16.5
-70.708029 43.062606 -9.4
-70.710108 43.062606 -4.9
-70.702099 43.062611 -14.6
-70.711494 43.062611 0.6
-70.700943 43.062633 -5.5
-70.704224 43.062642 -18.3
-70.700471 43.062645 -5.2
-70.702327 43.062645 -14.6
-70.706877 43.062650 -12.5
-70.702849 43.062656 -17.4
-70.704685 43.062656 -17.4
-70.707757 43.062670 -10.4
-70.699749 43.062675 -4.9
-70.701852 43.062692 -13.1
-70.711291 43.062692 -0.3
-70.700310 43.062700 -5.8
-70.709850 43.062703 -5.2
-70.704496 43.062706 -18.3
-70.706646 43.062706 -12.8
-70.701215 43.062708 -8.2
-70.702610 43.062722 -16.5
-70.704052 43.062725 -18.9
-70.707557 43.062728 -10.7
-70.700621 43.062733 -4.6
-70.711028 43.062747 -1.2
-70.701615 43.062750 -11.6
-70.700099 43.062756 -5.5
-70.706402 43.062764 -13.4
-70.708729 43.062764 -7.3
-70.703879 43.062770 -18.6
-70.709616 43.062772 -5.5
-70.704307 43.062778 -18.6
-70.707365 43.062786 -11.6
-70.702338 43.062792 -15.2
-70.703685 43.062803 -18.3
-70.700413 43.062811 -4.9
-70.699874 43.062817 -4.9
-70.706204 43.062817 -13.7
-70.704127 43.062839 -18.9
-70.710808 43.062845 -1.5
-70.707146 43.062847 -11.9
-70.701346 43.062850 -8.8
-70.702102 43.062861 -13.4
-70.709374 43.062861 -6.1
-70.700963 43.062864 -5.8
-70.705932 43.062872 -14.3
-70.703143 43.062878 -17.4
-70.699638 43.062881 -4.3
-70.700160 43.062886 -4.6
-70.703932 43.062889 -18.9
-70.710591 43.062897 -1.8
-70.703354 43.062911 -17.4
-70.706921 43.062914 -12.8
-70.701071 43.062928 -8.2
-70.699868 43.062933 -4.9
-70.700807 43.062933 -3.4
-70.700579 43.062936 -4.6
-70.709165 43.062936 -5.8
-70.708721 43.062945 -7.3
-70.701768 43.062950 -10.1
-70.705729 43.062953 -14.3
-70.710405 43.062956 -2.7
-70.703727 43.062958 -18.6
-70.706704 43.062958 -11.6
-70.702757 43.062961 -16.5
-70.700035 43.062964 -5.5
-70.701574 43.062989 -10.7
-70.705488 43.062989 -14.9
-70.708896 43.063003 -6.7
-70.703507 43.063008 -17.7
-70.704871 43.063008 -16.5
-70.702952 43.063017 -16.5
-70.710175 43.063017 -4.0
-70.705268 43.063020 -15.5
-70.706504 43.063039 -13.4
-70.703299 43.063061 -17.1
-70.701374 43.063070 -9.1
-70.708718 43.063070 -6.4
-70.700596 43.063075 -4.0
-70.704610 43.063078 -17.4
-70.709966 43.063081 -5.2
-70.705040 43.063092 -16.2
-70.706268 43.063095 -13.7
-70.702632 43.063097 -14.3
-70.700360 43.063108 -4.9
-70.700118 43.063122 -5.5
-70.709780 43.063122 -5.8
-70.702254 43.063125 -13.1
-70.708404 43.063125 -8.5
-70.704335 43.063128 -18.0
-70.703079 43.063133 -16.8
-70.701854 43.063136 -10.4
-70.699902 43.063167 -4.9
-70.704752 43.063175 -16.5
-70.709580 43.063175 -5.5
-70.700863 43.063178 -6.4
-70.701104 43.063181 -6.7
-70.704127 43.063183 -18.0
-70.701485 43.063189 -9.8
-70.702893 43.063189 -15.8
-70.705338 43.063192 -15.5
-70.708174 43.063195 -9.1
-70.699685 43.063208 -5.5
-70.705874 43.063217 -13.7
-70.704552 43.063220 -17.4
-70.705129 43.063225 -15.5
-70.702674 43.063231 -14.0
-70.709364 43.063236 -5.5
-70.700610 43.063245 -6.1
-70.703865 43.063245 -18.3
-70.700010 43.063250 -5.8
-70.707824 43.063250 -10.4
-70.704349 43.063272 -18.0
-70.702452 43.063275 -14.3
-70.701993 43.063289 -12.5
-70.705618 43.063289 -14.3
-70.704868 43.063292 -15.5
-70.700382 43.063300 -7.6
-70.707602 43.063300 -11.0
-70.703635 43.063303 -17.1
-70.709158 43.063303 -5.8
-70.701165 43.063331 -9.1
-70.702246 43.063333 -14.0
-70.708943 43.063345 -7.3
-70.705390 43.063347 -14.9
-70.707377 43.063356 -11.9
-70.711083 43.063356 0.0
-70.703393 43.063370 -15.5
-70.704549 43.063370 -16.8
-70.708732 43.063370 -6.4
-70.700196 43.063372 -6.7
-70.701613 43.063372 -12.8
-70.701371 43.063378 -8.5
-70.710900 43.063386 -0.3
-70.700029 43.063389 -6.4
-70.702027 43.063403 -11.3
-70.705174 43.063403 -15.5
-70.704360 43.063406 -18.0
-70.703935 43.063408 -18.0
-70.700879 43.063411 -9.4
-70.703179 43.063422 -13.1
-70.707146 43.063428 -12.2
-70.704952 43.063436 -16.2
-70.699813 43.063447 -6.1
-70.701813 43.063461 -13.1
-70.704185 43.063461 -18.0
-70.710480 43.063464 -0.2
-70.704790 43.063472 -16.2
-70.702927 43.063478 -12.8
-70.703679 43.063483 -17.4
-70.706915 43.063483 -12.8
-70.708507 43.063483 -8.2
-70.699649 43.063489 -4.0
-70.701238 43.063500 -9.4
-70.710230 43.063522 -2.1
-70.700152 43.063528 -7.0
-70.704527 43.063533 -17.1
-70.708327 43.063533 -8.5
-70.703454 43.063536 -15.8
-70.701593 43.063539 -12.8
-70.703810 43.063539 -18.0
-70.711141 43.063539 -0.3
-70.710014 43.063553 -3.7
-70.700968 43.063556 -10.1
-70.702654 43.063558 -12.2
-70.708738 43.063558 -7.6
-70.706685 43.063561 -13.1
-70.700574 43.063575 -7.0
-70.701754 43.063581 -11.3
-70.708140 43.063586 -9.4
-70.709828 43.063586 -5.8
-70.704840 43.063589 -16.2
-70.704296 43.063592 -18.0
-70.703238 43.063597 -14.0
-70.701415 43.063606 -12.5
-70.706396 43.063608 -13.1
-70.702185 43.063620 -11.9
-70.702421 43.063628 -11.0
-70.702993 43.063642 -13.7
-70.704096 43.063642 -18.3
-70.709603 43.063647 -6.7
-70.707918 43.063650 -10.1
-70.703521 43.063656 -16.5
-70.704507 43.063656 -16.5
-70.710686 43.063656 -1.5
-70.700210 43.063667 -7.6
-70.703907 43.063672 -18.3
-70.701182 43.063675 -11.9
-70.702771 43.063675 -12.5
-70.710389 43.063675 -1.2
-70.707696 43.063678 -11.0
-70.706190 43.063681 -13.1
-70.709405 43.063681 -7.3
-70.702588 43.063717 -12.5
-70.707490 43.063725 -11.6
-70.703277 43.063731 -14.3
-70.703671 43.063742 -18.3
-70.700977 43.063745 -11.0
-70.709155 43.063745 -7.9
-70.705852 43.063747 -13.4
-70.704168 43.063758 -18.0
-70.710161 43.063767 -4.0
-70.708730 43.063770 -8.2
-70.701827 43.063775 -12.8
-70.703021 43.063783 -12.5
-70.707274 43.063786 -12.2
-70.702365 43.063792 -10.1
-70.703440 43.063800 -17.1
-70.700282 43.063806 -8.5
-70.705610 43.063811 -14.0
-70.701354 43.063814 -12.5
-70.708894 43.063825 -8.2
-70.703799 43.063833 -18.3
-70.709936 43.063833 -5.5
-70.702035 43.063836 -10.1
-70.707102 43.063845 -12.5
-70.700652 43.063847 -7.9
-70.701135 43.063856 -12.5
-70.701643 43.063872 -12.8
-70.703193 43.063878 -14.3
-70.706879 43.063878 -12.5
-70.705365 43.063881 -14.6
-70.702654 43.063883 -11.6
-70.703477 43.063908 -18.0
-70.709675 43.063908 -6.7
-70.706682 43.063928 -12.8
-70.705140 43.063931 -15.2
-70.703010 43.063933 -12.8
-70.704421 43.063933 -17.1
-70.702385 43.063936 -11.0
-70.701435 43.063942 -11.9
-70.708441 43.063956 -9.1
-70.700343 43.063958 -9.8
-70.708744 43.063967 -8.2
-70.703293 43.063972 -16.8
-70.706474 43.063972 -12.5
-70.711319 43.063978 -0.3
-70.709436 43.063989 -7.3
-70.702740 43.063997 -12.2
-70.704885 43.064000 -16.2
-70.708199 43.064006 -9.1
-70.700143 43.064008 -7.3
-70.701960 43.064008 -10.7
-70.704152 43.064011 -18.3
-70.706254 43.064011 -13.1
-70.703096 43.064017 -15.2
-70.711111 43.064025 -0.3
-70.710914 43.064036 -1.2
-70.704643 43.064042 -16.2
-70.700982 43.064047 -11.0
-70.706010 43.064047 -13.1
-70.702529 43.064053 -12.2
-70.701182 43.064056 -10.1
-70.709222 43.064056 -7.9
-70.699921 43.064058 -9.1
-70.702907 43.064064 -14.0
-70.701690 43.064067 -9.8
-70.705802 43.064070 -13.4
-70.707971 43.064070 -9.8
-70.703888 43.064072 -18.6
-70.704390 43.064095 -17.1
-70.700774 43.064106 -10.4
-70.710750 43.064111 -3.0
-70.702304 43.064114 -11.0
-70.702704 43.064114 -13.4
-70.703613 43.064128 -18.6
-70.708964 43.064128 -8.2
-70.707738 43.064131 -10.4
-70.705607 43.064133 -13.7
-70.701479 43.064145 -9.8
-70.699602 43.064150 -5.8
-70.704177 43.064156 -18.0
-70.702032 43.064158 -10.4
-70.702535 43.064161 -11.6
-70.703418 43.064164 -18.6
-70.700557 43.064170 -10.1
-70.708750 43.064178 -8.5
-70.700971 43.064181 -9.8
-70.701349 43.064189 -10.7
-70.705432 43.064200 -14.3
-70.703918 43.064203 -18.6
-70.710494 43.064206 -3.4
-70.707518 43.064208 -11.0
-70.701171 43.064214 -10.4
-70.703177 43.064228 -15.5
-70.700374 43.064231 -9.8
-70.702352 43.064236 -12.2
-70.703668 43.064247 -18.9
-70.711608 43.064247 -0.3
-70.710286 43.064253 -4.6
-70.705227 43.064256 -14.6
-70.702532 43.064261 -12.8
-70.707290 43.064264 -11.6
-70.702154 43.064267 -11.3
-70.701732 43.064272 -10.7
-70.708455 43.064272 -9.1
-70.711414 43.064275 -0.9
-70.700885 43.064289 -9.1
-70.702888 43.064289 -14.0
-70.701540 43.064303 -8.8
-70.710069 43.064303 -5.8
-70.700135 43.064314 -10.7
-70.705027 43.064314 -14.9
-70.700615 43.064320 -6.7
-70.701935 43.064320 -11.3
-70.707079 43.064328 -11.6
-70.703418 43.064331 -19.2
-70.711169 43.064342 -1.8
-70.699899 43.064347 -11.3
-70.702577 43.064353 -12.5
-70.701032 43.064356 -11.6
-70.708200 43.064361 -9.4
-70.708744 43.064375 -7.6
-70.701388 43.064381 -10.4
-70.703196 43.064381 -18.9
-70.704824 43.064381 -15.5
-70.709833 43.064383 -6.4
-70.700404 43.064395 -9.4
-70.699718 43.064397 -11.0
-70.702427 43.064400 -12.5
-70.702210 43.064403 -14.0
-70.710939 43.064408 -3.0
-70.702932 43.064425 -17.7
-70.700143 43.064436 -11.6
-70.709628 43.064436 -7.0
-70.707925 43.064439 -9.8
-70.700771 43.064445 -12.5
-70.701154 43.064445 -13.1
-70.704624 43.064447 -15.8
-70.701629 43.064461 -11.9
-70.702699 43.064461 -17.1
-70.706615 43.064481 -11.9
-70.702104 43.064483 -14.0
-70.699902 43.064489 -12.5
-70.710675 43.064492 -4.6
-70.700502 43.064497 -14.3
-70.701438 43.064503 -12.5
-70.704454 43.064508 -16.2
-70.709380 43.064517 -6.7
-70.707635 43.064520 -10.4
-70.700307 43.064531 -14.9
-70.702427 43.064531 -17.1
-70.706396 43.064547 -12.2
-70.701882 43.064550 -14.3
-70.701152 43.064556 -14.6
-70.700782 43.064558 -11.3
-70.710394 43.064558 -5.5
-70.699679 43.064561 -12.8
-70.709133 43.064564 -7.3
-70.704224 43.064575 -16.8
-70.707382 43.064575 -9.4
-70.708741 43.064586 -7.6
-70.701668 43.064589 -14.9
-70.702710 43.064589 -16.5
-70.702179 43.064592 -16.8
-70.708916 43.064620 -7.6
-70.704018 43.064628 -17.4
-70.706160 43.064631 -12.8
-70.710119 43.064631 -6.1
-70.700446 43.064639 -13.1
-70.701977 43.064642 -17.4
-70.707110 43.064650 -10.4
-70.701407 43.064667 -14.6
-70.709872 43.064681 -6.1
-70.703838 43.064689 -18.6
-70.708636 43.064695 -7.9
-70.705938 43.064697 -13.1
-70.701713 43.064706 -17.4
-70.700265 43.064708 -14.6
-70.701193 43.064708 -16.5
-70.700852 43.064714 -15.8
-70.703610 43.064720 -18.9
-70.706877 43.064725 -10.7
-70.702790 43.064745 -18.0
-70.707488 43.064756 -7.6
-70.708389 43.064764 -8.2
-70.703396 43.064770 -19.2
-70.700549 43.064778 -16.8
-70.705713 43.064778 -13.4
-70.709605 43.064778 -6.7
-70.700043 43.064789 -14.9
-70.708764 43.064797 -7.3
-70.701468 43.064803 -17.7
-70.706624 43.064806 -11.6
-70.711066 43.064806 -1.5
-70.703168 43.064817 -19.5
-70.705479 43.064825 -13.7
-70.708186 43.064825 -8.8
-70.699796 43.064833 -15.2
-70.710889 43.064836 -1.8
-70.700918 43.064839 -16.8
-70.709339 43.064842 -6.7
-70.700704 43.064847 -17.4
-70.702957 43.064858 -19.2
-70.706374 43.064872 -12.2
-70.707953 43.064875 -9.1
-70.701210 43.064881 -18.0
-70.702763 43.064886 -18.6
-70.709111 43.064892 -7.3
-70.699590 43.064900 -15.2
-70.700521 43.064903 -18.0
-70.710694 43.064906 -3.0
-70.702529 43.064931 -18.3
-70.705029 43.064936 -13.7
-70.707672 43.064942 -9.4
-70.700329 43.064947 -16.8
-70.710478 43.064953 -4.3
-70.706143 43.064956 -12.8
-70.708861 43.064958 -7.3
-70.702321 43.064970 -18.0
-70.700974 43.064975 -18.3
-70.707464 43.064995 -9.4
-70.710275 43.065014 -4.9
-70.704615 43.065022 -13.7
-70.702099 43.065028 -18.0
-70.705907 43.065039 -13.1
-70.700749 43.065053 -18.6
-70.707193 43.065061 -8.8
-70.708555 43.065070 -7.9
-70.710086 43.065072 -5.5
-70.701871 43.065095 -18.3
-70.704360 43.065103 -14.0
-70.705652 43.065103 -13.4
-70.700490 43.065125 -18.9
-70.708333 43.065131 -8.5
-70.701665 43.065133 -18.3
-70.706940 43.065136 -10.4
-70.704129 43.065142 -14.3
-70.709855 43.065147 -5.8
-70.705352 43.065186 -13.4
-70.709680 43.065186 -5.8
-70.703913 43.065189 -15.2
-70.700218 43.065203 -19.5
-70.706713 43.065203 -11.0
-70.708047 43.065214 -9.1
-70.701404 43.065222 -18.6
-70.703679 43.065225 -16.2
-70.699579 43.065228 -17.1
-70.705163 43.065233 -13.4
-70.709455 43.065239 -6.1
-70.708733 43.065247 -6.4
-70.703446 43.065258 -18.0
-70.706452 43.065270 -11.6
-70.700546 43.065272 -19.2
-70.703257 43.065289 -18.9
-70.699977 43.065292 -19.8
-70.701204 43.065292 -18.9
-70.707772 43.065292 -9.1
-70.709211 43.065295 -6.4
-70.704843 43.065306 -13.4
-70.706218 43.065311 -12.2
-70.702993 43.065339 -15.2
-70.700979 43.065356 -19.2
-70.708961 43.065358 -6.7
-70.699638 43.065361 -18.9
-70.704602 43.065378 -13.4
-70.706032 43.065381 -12.8
-70.702677 43.065400 -12.8
-70.700743 43.065403 -19.5
-70.710450 43.065408 -2.1
-70.707464 43.065417 -9.8
-70.707786 43.065422 -8.8
-70.702343 43.065433 -17.1
-70.704357 43.065433 -13.4
-70.710303 43.065442 -3.0
-70.708469 43.065450 -7.3
-70.708725 43.065450 -7.0
-70.699949 43.065456 -20.1
-70.702115 43.065464 -17.7
-70.700524 43.065467 -19.8
-70.705735 43.065467 -13.1
-70.707255 43.065486 -10.1
-70.704071 43.065492 -13.7
-70.710119 43.065492 -4.9
-70.699724 43.065511 -19.8
-70.701885 43.065514 -18.0
-70.707758 43.065531 -9.1
-70.701635 43.065536 -18.6
-70.705502 43.065536 -13.1
-70.707003 43.065536 -10.7
-70.700282 43.065542 -20.4
-70.707978 43.065550 -8.8
-70.703813 43.065556 -14.0
-70.708166 43.065558 -8.2
-70.709939 43.065570 -5.2
-70.701396 43.065578 -19.2
-70.705304 43.065583 -13.1
-70.700835 43.065600 -19.5
-70.706744 43.065603 -11.3
-70.709753 43.065614 -5.5
-70.703607 43.065617 -15.5
-70.704596 43.065620 -12.5
-70.707486 43.065622 -9.4
-70.699985 43.065639 -20.4
-70.701174 43.065645 -19.5
-70.704379 43.065653 -12.8
-70.705018 43.065653 -12.8
-70.709566 43.065653 -5.5
-70.699610 43.065661 -19.8
-70.707983 43.065672 -8.8
-70.707758 43.065675 -9.1
-70.708722 43.065675 -6.7
-70.707219 43.065678 -9.8
-70.703302 43.065689 -17.4
-70.706496 43.065689 -11.9
-70.708175 43.065689 -8.2
-70.704171 43.065692 -13.1
-70.709386 43.065706 -6.1
-70.703968 43.065714 -13.4
-70.704793 43.065714 -12.8
-70.703121 43.065731 -16.8
-70.703768 43.065747 -14.0
-70.706229 43.065761 -12.5
-70.709191 43.065761 -6.4
-70.704577 43.065764 -12.5
-70.706955 43.065764 -9.8
-70.700715 43.065772 -19.8
-70.702860 43.065778 -15.8
-70.703568 43.065783 -14.6
-70.700929 43.065786 -19.5
-70.709619 43.065797 -5.5
-70.699879 43.065803 -19.8
-70.700477 43.065806 -20.4
-70.700104 43.065808 -20.4
-70.708566 43.065820 -7.0
-70.709022 43.065820 -6.4
-70.704296 43.065822 -12.8
-70.703357 43.065831 -15.5
-70.708169 43.065831 -8.5
-70.711097 43.065831 1.5
-70.706747 43.065836 -10.4
-70.707711 43.065836 -9.1
-70.707966 43.065842 -8.5
-70.702593 43.065845 -13.4
-70.709414 43.065847 -5.8
-70.705993 43.065856 -12.8
-70.710844 43.065858 -0.9
-70.704060 43.065867 -13.4
-70.703171 43.065870 -15.8
-70.708783 43.065875 -6.7
-70.700252 43.065881 -20.4
-70.710586 43.065889 -2.7
-70.702977 43.065895 -13.7
-70.702374 43.065900 -14.6
-70.699754 43.065917 -19.8
-70.709144 43.065917 -6.1
-70.706505 43.065925 -11.0
-70.705707 43.065939 -13.1
-70.710361 43.065939 -3.7
-70.701068 43.065945 -19.8
-70.703813 43.065945 -14.0
-70.702729 43.065950 -12.2
-70.708528 43.065950 -7.3
-70.702104 43.065956 -15.8
-70.707680 43.065975 -9.1
-70.708928 43.065978 -6.1
-70.710128 43.065978 -4.6
-70.702518 43.065983 -12.8
-70.705493 43.065992 -13.1
-70.712580 43.065997 0.3
-70.700235 43.066006 -20.7
-70.701854 43.066006 -15.8
-70.703577 43.066006 -14.3
-70.709922 43.066008 -4.9
-70.708308 43.066011 -7.9
-70.706238 43.066033 -11.3
-70.699846 43.066047 -19.5
-70.701646 43.066050 -18.3
-70.705274 43.066050 -13.1
-70.703329 43.066053 -15.2
-70.709672 43.066058 -5.2
-70.712233 43.066078 0.3
-70.708022 43.066081 -8.2
-70.700013 43.066089 -19.8
-70.705071 43.066095 -13.1
-70.708444 43.066095 -7.0
-70.701365 43.066100 -19.8
-70.712058 43.066108 0.0
-70.704635 43.066114 -12.2
-70.706021 43.066114 -11.6
-70.708691 43.066122 -6.1
-70.709450 43.066122 -4.6
-70.708891 43.066125 -5.8
-70.699499 43.066128 -18.3
-70.703049 43.066131 -15.8
-70.707789 43.066136 -8.8
-70.700265 43.066145 -20.7
-70.704371 43.066161 -12.5
-70.704804 43.066170 -12.2
-70.708189 43.066178 -7.6
-70.711864 43.066178 -0.3
-70.702835 43.066186 -15.8
-70.709222 43.066186 -4.9
-70.702235 43.066195 -13.1
-70.701121 43.066197 -20.1
-70.707530 43.066200 -8.8
-70.705824 43.066206 -11.9
-70.704154 43.066208 -12.8
-70.704579 43.066236 -12.2
-70.707944 43.066239 -8.2
-70.710433 43.066245 -2.1
-70.709014 43.066247 -4.3
-70.707316 43.066250 -8.8
-70.702068 43.066253 -13.4
-70.703910 43.066264 -13.4
-70.700329 43.066267 -20.7
-70.700868 43.066267 -20.1
-70.702493 43.066267 -11.0
-70.708541 43.066267 -5.2
-70.711516 43.066270 -0.3
-70.699621 43.066272 -18.3
-70.707683 43.066275 -8.5
-70.705610 43.066286 -12.5
-70.710250 43.066295 -2.7
-70.701877 43.066297 -14.0
-70.703688 43.066297 -14.0
-70.709244 43.066308 -4.6
-70.700010 43.066314 -19.2
-70.707044 43.066314 -9.4
-70.711150 43.066314 -1.2
-70.701329 43.066322 -19.5
-70.708655 43.066325 -3.4
-70.700610 43.066333 -20.4
-70.701696 43.066339 -15.8
-70.710053 43.066342 -4.3
-70.704313 43.066350 -12.5
-70.703446 43.066353 -14.6
-70.708150 43.066364 -6.7
-70.712689 43.066367 -0.2
-70.706825 43.066378 -10.1
-70.701485 43.066389 -16.2
-70.702074 43.066389 -12.8
-70.705365 43.066389 -12.5
-70.709830 43.066392 -4.6
-70.710989 43.066392 -0.9
-70.700324 43.066403 -20.4
-70.708555 43.066408 -2.7
-70.703232 43.066411 -15.5
-70.708866 43.066420 -3.7
-70.700110 43.066422 -18.3
-70.712469 43.066425 -0.2
-70.707244 43.066428 -8.8
-70.704060 43.066436 -13.1
-70.709228 43.066436 -4.9
-70.701315 43.066439 -18.9
-70.707958 43.066450 -6.1
-70.708336 43.066450 -3.4
-70.709628 43.066450 -5.2
-70.701807 43.066453 -14.3
-70.710697 43.066456 -3.4
-70.702960 43.066458 -16.2
-70.706569 43.066461 -10.4
-70.708216 43.066478 -2.7
-70.701110 43.066486 -20.1
-70.705138 43.066486 -12.2
-70.709428 43.066489 -5.5
-70.707625 43.066497 -7.9
-70.706330 43.066500 -11.0
-70.712233 43.066500 -0.2
-70.701599 43.066506 -17.1
-70.703852 43.066508 -13.1
-70.699796 43.066511 -17.1
-70.702182 43.066514 -12.2
-70.710441 43.066514 -3.7
-70.700285 43.066528 -18.9
-70.700918 43.066531 -20.4
-70.702743 43.066531 -13.7
-70.700457 43.066550 -20.4
-70.700727 43.066550 -20.1
-70.710236 43.066550 -4.3
-70.708453 43.066553 -4.9
-70.704899 43.066561 -11.9
-70.707811 43.066561 -4.6
-70.708855 43.066561 -5.5
-70.706064 43.066586 -11.6
-70.699515 43.066589 -17.1
-70.701324 43.066589 -19.2
-70.701954 43.066595 -13.1
-70.711933 43.066595 -0.6
-70.703607 43.066600 -14.3
-70.709491 43.066603 -5.5
-70.710039 43.066603 -4.9
-70.702515 43.066611 -11.6
-70.708175 43.066611 -2.7
-70.707700 43.066617 -6.4
-70.708614 43.066617 -5.5
-70.701107 43.066625 -20.7
-70.711725 43.066625 -1.2
-70.709250 43.066633 -5.2
-70.701593 43.066639 -17.7
-70.704618 43.066647 -11.9
-70.707958 43.066653 -2.7
-70.699804 43.066656 -16.5
-70.709050 43.066658 -5.2
-70.701788 43.066664 -15.5
-70.705808 43.066664 -12.2
-70.709772 43.066664 -5.2
-70.700346 43.066667 -12.5
-70.702293 43.066678 -11.6
-70.703360 43.066686 -14.6
-70.704410 43.066689 -11.9
-70.707466 43.066689 -7.6
-70.700896 43.066692 -21.6
-70.712153 43.066700 -0.9
-70.700118 43.066714 -14.6
-70.708183 43.066714 -1.2
-70.708422 43.066714 -4.6
-70.709547 43.066722 -5.8
-70.711522 43.066731 -1.5
-70.702104 43.066733 -13.4
-70.708844 43.066742 -4.6
-70.703146 43.066753 -15.8
-70.707208 43.066753 -8.2
-70.712003 43.066753 -1.5
-70.729147 43.057411 -0.3
-70.728928 43.057689 -1.2
-70.728761 43.057797 -1.8
-70.728566 43.057803 -1.2
-70.728216 43.057861 -0.9
-70.729230 43.057886 -1.2
-70.728780 43.057947 -1.2
-70.728383 43.057956 -0.9
-70.729055 43.058008 -2.4
-70.727961 43.058033 -0.6
-70.729041 43.058092 -1.8
-70.728791 43.058158 -0.9
-70.729230 43.058195 -2.1
-70.729008 43.058211 -1.2
-70.729472 43.058275 -1.5
-70.728905 43.058286 -0.6
-70.728494 43.058292 -0.3
-70.729255 43.058297 -1.8
-70.729703 43.058333 -1.2
-70.729878 43.058403 -0.6
-70.729528 43.058417 -1.2
-70.729769 43.058470 -1.8
-70.730083 43.058481 -0.6
-70.729989 43.058514 -1.2
-70.729189 43.058533 -0.3
-70.730291 43.058539 -0.3
-70.729361 43.058581 -0.3
-70.729536 43.058606 -0.6
-70.730203 43.058606 -0.9
-70.730522 43.058628 -0.3
-70.729733 43.058678 -1.2
-70.730405 43.058683 -0.6
-70.730741 43.058697 0.0
-70.729891 43.058731 -1.2
-70.730603 43.058747 -0.6
-70.730055 43.058789 -1.5
-70.729114 43.058806 0.0
-70.730244 43.058833 -1.2
-70.729275 43.058839 -0.3
-70.729014 43.058872 -0.3
-70.729444 43.058892 -0.6
-70.730433 43.058903 -0.6
-70.732189 43.058917 0.6
-70.732355 43.058917 0.3
-70.729594 43.058928 -1.2
-70.732575 43.058945 0.2
-70.729278 43.058958 -0.3
-70.730703 43.058972 -0.3
-70.729750 43.058978 -2.4
-70.730241 43.058983 -2.4
-70.732730 43.058992 0.2
-70.729419 43.059000 -0.6
-70.731614 43.059006 0.0
-70.729916 43.059020 -1.8
-70.730425 43.059022 -2.1
-70.730611 43.059050 -1.8
-70.731764 43.059050 0.0
-70.729569 43.059064 -1.5
-70.730119 43.059067 -2.7
-70.731947 43.059070 0.0
-70.730275 43.059083 -3.4
-70.729753 43.059092 -1.2
-70.730805 43.059106 -2.1
-70.732164 43.059108 -0.3
-70.729897 43.059139 -1.8
-70.731016 43.059139 -0.9
-70.732364 43.059139 -0.6
-70.731189 43.059164 -1.8
-70.730597 43.059167 -4.0
-70.732544 43.059175 -1.2
-70.730053 43.059183 -2.7
-70.730200 43.059208 -2.7
-70.731422 43.059217 -3.0
-70.732778 43.059217 -2.1
-70.730850 43.059250 -4.3
-70.731605 43.059256 -3.0
-70.730344 43.059270 -3.4
-70.731128 43.059295 -4.3
-70.731805 43.059297 -3.7
-70.730558 43.059314 -3.7
-70.731972 43.059322 -3.4
-70.732158 43.059350 -3.4
-70.730739 43.059367 -4.3
-70.731366 43.059381 -4.0
-70.732364 43.059381 -3.4
-70.729028 43.059389 0.3
-70.730936 43.059408 -4.3
-70.732514 43.059408 -3.4
-70.729147 43.059414 0.2
-70.732694 43.059433 -3.0
-70.731647 43.059439 -3.7
-70.731055 43.059445 -3.7
-70.729330 43.059450 -0.2
-70.729536 43.059478 -0.3
-70.729794 43.059511 -0.6
-70.731897 43.059514 -3.7
-70.731294 43.059528 -3.4
-70.729997 43.059553 -1.2
-70.731505 43.059558 -3.0
-70.732144 43.059581 -3.7
-70.730189 43.059586 -2.1
-70.731686 43.059592 -3.0
-70.730358 43.059603 -3.0
-70.732403 43.059622 -3.7
-70.732564 43.059636 -3.4
-70.731450 43.059647 -0.6
-70.732797 43.059661 -3.0
-70.730525 43.059664 -2.7
-70.730644 43.059670 -1.8
-70.730794 43.059717 -0.6
-70.731647 43.059728 0.2
-70.730972 43.059736 0.6
-70.731525 43.059758 0.6
-70.731814 43.059770 -0.3
-70.731166 43.059775 0.6
-70.731311 43.059814 0.3
-70.731991 43.059817 -1.5
-70.732189 43.059842 -1.2
-70.731464 43.059847 0.3
-70.731614 43.059867 -0.6
-70.731778 43.059886 -1.2
-70.731891 43.059911 -1.2
-70.732411 43.059939 -0.9
-70.732053 43.059953 -0.9
-70.732330 43.060008 -0.9
-70.732758 43.060056 -0.6
-70.732639 43.060067 -0.9
-70.731672 43.060103 0.3
-70.731744 43.060250 0.3
-70.731836 43.060395 0.3
-70.732811 43.060417 0.0
-70.732641 43.060467 0.6
-70.732525 43.060506 0.9
-70.731911 43.060539 0.3
-70.732344 43.060547 0.6
-70.732183 43.060578 0.6
-70.732008 43.060661 0.0
-70.731872 43.060678 0.6
-70.731669 43.060703 1.2
-70.732094 43.060770 0.3
-70.731975 43.060783 0.0
-70.732203 43.060861 0.3
-70.731914 43.060933 -0.3
-70.731786 43.060995 0.6
-70.731861 43.061081 -0.3
-70.731658 43.061103 0.6
-70.731841 43.061178 0.3
-70.731489 43.061225 0.6
-70.731761 43.061333 0.9
-70.731336 43.061356 0.6
-70.731208 43.061467 0.6
-70.731653 43.061578 0.9
-70.731078 43.061581 0.6
-70.730989 43.061708 0.9
-70.731508 43.061803 1.2
-70.730786 43.061814 1.2
-70.730716 43.061911 0.9
-70.730530 43.062020 1.2
-70.730364 43.062145 1.2
-70.730222 43.062261 1.2
-70.730064 43.062400 0.9
-70.729916 43.062492 0.6
-70.729753 43.062611 0.3
-70.729622 43.062703 0.3
-70.729447 43.062820 0.3
-70.729294 43.062931 0.2
-70.729130 43.063067 0.0
-70.728933 43.063114 -1.2
-70.728780 43.063256 -0.3
-70.728658 43.063378 0.3
-70.728522 43.063481 0.9
-70.728347 43.063597 0.6
-70.728144 43.063720 0.6
-70.729755 43.063881 1.2
-70.729619 43.063947 1.5
-70.729497 43.064011 0.0
-70.729230 43.064133 0.0
-70.729064 43.064203 0.0
-70.728894 43.064275 -0.6
-70.728728 43.064339 0.0
-70.728600 43.064420 0.0
-70.728328 43.064536 0.0
-70.727986 43.064670 0.2
-70.727728 43.064833 0.3
-70.727400 43.065186 0.6
-70.727541 43.065289 0.2
-70.727247 43.065317 0.2
-70.727680 43.065397 0.0
-70.726411 43.065442 0.3
-70.727375 43.065517 0.2
-70.727930 43.065639 0.0
-70.726633 43.065725 0.2
-70.727511 43.065758 0.2
-70.727328 43.065778 0.2
-70.728205 43.065856 0.0
-70.728316 43.065970 0.0
-70.727608 43.065983 0.0
-70.726850 43.065995 0.0
-70.731591 43.066020 -0.3
-70.727441 43.066022 0.0
-70.728436 43.066056 -0.2
-70.732683 43.066081 -0.3
-70.732158 43.066133 -0.2
-70.728561 43.066175 -0.9
-70.727766 43.066183 0.0
-70.727036 43.066256 0.0
-70.727580 43.066256 0.0
-70.731733 43.066261 -0.3
-70.732825 43.066272 -0.3
-70.728675 43.066297 0.0
-70.732233 43.066297 -0.3
-70.727875 43.066425 -0.2
-70.731869 43.066495 -0.3
-70.727264 43.066511 0.0
-70.727694 43.066531 -0.2
-70.732353 43.066561 -0.3
-70.731947 43.066597 -0.3
-70.727997 43.066600 -0.3
-70.732044 43.066706 -0.6
-70.742933 43.053495 0.2
-70.742844 43.053606 0.2
-70.742764 43.053714 0.2
-70.743189 43.053728 0.0
-70.743833 43.053764 -0.3
-70.742650 43.053825 0.3
-70.743072 43.053850 0.0
-70.743708 43.053867 -0.3
-70.742797 43.053917 -0.2
-70.742569 43.053942 0.2
-70.743605 43.053950 -0.9
-70.742939 43.053978 -0.3
-70.743039 43.053992 -1.2
-70.743919 43.053997 -1.5
-70.743486 43.054020 -1.5
-70.743186 43.054036 -1.5
-70.744169 43.054056 -1.5
-70.742822 43.054078 -0.3
-70.743336 43.054122 -1.5
-70.744428 43.054131 -1.5
-70.743594 43.054133 -1.2
-70.742383 43.054161 0.3
-70.744564 43.054172 -1.5
-70.742730 43.054189 -0.9
-70.743753 43.054195 -0.9
-70.749139 43.054197 -0.9
-70.743222 43.054214 -1.5
-70.744703 43.054217 -1.2
-70.743919 43.054236 -0.2
-70.742291 43.054253 -0.3
-70.744853 43.054270 -0.9
-70.744066 43.054292 -0.2
-70.742600 43.054295 -1.2
-70.744955 43.054303 -0.6
-70.743105 43.054311 -1.2
-70.748936 43.054336 0.3
-70.744205 43.054342 -0.3
-70.745136 43.054342 -0.9
-70.742194 43.054367 -0.9
-70.749383 43.054378 -0.9
-70.744358 43.054386 -0.6
-70.745272 43.054392 -1.2
-70.742986 43.054397 -0.6
-70.744508 43.054428 -0.9
-70.742480 43.054433 -1.2
-70.745414 43.054439 -1.2
-70.749169 43.054478 -1.2
-70.744666 43.054481 -0.9
-70.742091 43.054483 -1.5
-70.741794 43.054495 -0.3
-70.744794 43.054495 -1.2
-70.745569 43.054495 -0.6
-70.741666 43.054511 -0.2
-70.741950 43.054511 -0.9
-70.742228 43.054531 -1.5
-70.745728 43.054536 -0.6
-70.742364 43.054539 -1.5
-70.744936 43.054553 -1.2
-70.742566 43.054558 -0.9
-70.742689 43.054558 -0.9
-70.745894 43.054558 -0.6
-70.745086 43.054586 -1.5
-70.742791 43.054589 0.3
-70.742997 43.054592 0.2
-70.742000 43.054597 -1.5
-70.743311 43.054603 0.2
-70.743669 43.054622 0.2
-70.746080 43.054625 -0.9
-70.745228 43.054633 -1.5
-70.742236 43.054642 -1.2
-70.748983 43.054650 -1.5
-70.743994 43.054656 0.2
-70.744144 43.054658 0.2
-70.744314 43.054670 0.0
-70.746236 43.054670 -0.9
-70.745366 43.054686 -1.5
-70.744669 43.054700 -0.2
-70.742636 43.054708 -0.2
-70.746369 43.054708 -0.9
-70.745516 43.054711 -1.8
-70.741903 43.054717 -1.5
-70.744975 43.054722 -0.3
-70.746550 43.054731 -0.9
-70.742155 43.054758 -1.2
-70.745294 43.054761 -0.3
-70.745655 43.054764 -1.5
-70.745772 43.054770 -1.5
-70.741497 43.054781 -0.3
-70.741644 43.054781 -0.6
-70.746705 43.054781 -0.6
-70.745961 43.054783 -1.5
-70.742003 43.054789 -1.5
-70.742530 43.054800 -0.3
-70.743141 43.054800 -0.3
-70.746125 43.054800 -1.5
-70.742314 43.054803 -0.6
-70.742897 43.054811 -0.3
-70.746303 43.054811 -1.5
-70.743333 43.054814 -0.3
-70.742725 43.054820 -0.6
-70.743461 43.054820 -0.2
-70.746469 43.054833 -1.5
-70.741778 43.054836 -1.8
-70.746636 43.054839 -1.2
-70.746811 43.054839 -1.2
-70.743650 43.054845 -0.3
-70.743955 43.054850 -0.2
-70.743805 43.054853 -0.3
-70.745983 43.054858 -1.2
-70.744086 43.054883 0.0
-70.746989 43.054883 -0.6
-70.742405 43.054892 -0.3
-70.742022 43.054895 -1.2
-70.744269 43.054897 0.0
-70.744422 43.054906 -0.2
-70.747208 43.054906 -0.6
-70.744589 43.054922 -0.2
-70.747333 43.054925 -0.3
-70.746161 43.054928 -0.9
-70.744719 43.054931 -0.3
-70.747500 43.054933 -0.3
-70.748194 43.054942 -1.2
-70.746311 43.054950 -0.9
-70.747661 43.054950 -0.3
-70.747853 43.054950 -0.3
-70.741683 43.054953 -1.8
-70.748325 43.054956 -1.5
-70.748005 43.054961 0.0
-70.745025 43.054967 -0.3
-70.748505 43.054967 -1.5
-70.748711 43.054975 -1.2
-70.748955 43.054989 -0.6
-70.742336 43.054992 0.3
-70.745330 43.054997 -0.3
-70.745644 43.055039 -0.3
-70.741628 43.055056 -2.4
-70.745925 43.055067 -0.3
-70.746258 43.055086 -0.3
-70.742236 43.055103 0.9
-70.741778 43.055117 -1.2
-70.746555 43.055128 -0.3
-70.746858 43.055131 -1.2
-70.746730 43.055139 -0.6
-70.746986 43.055150 -1.2
-70.747139 43.055175 -1.5
-70.741514 43.055181 -2.1
-70.747283 43.055181 -1.5
-70.747405 43.055195 -1.5
-70.747739 43.055197 -1.8
-70.747566 43.055203 -1.5
-70.747891 43.055222 -1.8
-70.748219 43.055222 -1.2
-70.748050 43.055228 -1.5
-70.741705 43.055231 -2.1
-70.741444 43.055256 -1.5
-70.748691 43.055261 0.0
-70.748408 43.055264 -0.9
-70.748555 43.055270 -0.3
-70.742066 43.055286 -0.9
-70.741614 43.055361 -1.8
-70.741336 43.055383 -1.2
-70.741941 43.055406 -2.1
-70.741250 43.055486 -1.2
-70.741480 43.055500 -1.5
-70.741830 43.055503 -1.8
-70.741178 43.055603 -0.9
-70.741744 43.055606 -2.1
-70.742122 43.055608 0.2
-70.741372 43.055617 -1.5
-70.741961 43.055695 0.0
-70.741639 43.055706 -1.8
-70.741286 43.055717 -1.2
-70.741075 43.055722 -0.9
-70.741805 43.055767 -1.8
-70.741553 43.055811 -1.8
-70.741641 43.055850 -2.1
-70.741211 43.055867 -1.2
-70.741489 43.055903 -2.1
-70.740900 43.055933 -0.9
-70.741058 43.055983 -1.2
-70.741305 43.056017 -1.8
-70.741664 43.056042 0.2
-70.741191 43.056067 -1.8
-70.741544 43.056089 0.0
-70.740733 43.056120 -0.9
-70.740928 43.056133 -1.5
-70.741039 43.056158 -1.8
-70.741355 43.056183 0.0
-70.741230 43.056211 -0.6
-70.739589 43.056217 0.0
-70.739069 43.056222 0.3
-70.740878 43.056247 -1.8
-70.740641 43.056256 -0.9
-70.740803 43.056256 -1.5
-70.741061 43.056300 -0.6
-70.739333 43.056306 -0.2
-70.740530 43.056317 -1.5
-70.738855 43.056331 0.3
-70.740669 43.056353 -1.8
-70.740933 43.056364 -0.9
-70.739828 43.056439 -0.9
-70.740789 43.056439 -0.9
-70.738553 43.056442 0.3
-70.739036 43.056447 0.0
-70.740447 43.056453 -2.4
-70.740625 43.056492 -1.2
-70.739747 43.056495 -0.9
-70.740372 43.056503 -2.7
-70.739544 43.056528 -0.3
-70.740205 43.056550 -2.7
-70.738761 43.056558 0.3
-70.739589 43.056558 -0.6
-70.738253 43.056570 0.3
-70.740478 43.056570 -0.6
-70.739494 43.056631 -0.3
-70.740350 43.056642 -0.9
-70.739214 43.056647 -0.3
-70.740072 43.056650 -2.7
-70.738450 43.056672 0.3
-70.737972 43.056678 0.0
-70.739319 43.056692 -0.3
-70.740225 43.056697 -1.2
-70.739883 43.056728 -2.4
-70.739205 43.056745 -0.9
-70.738939 43.056750 -0.3
-70.737708 43.056772 0.0
-70.738147 43.056795 0.3
-70.740033 43.056800 -0.9
-70.739025 43.056806 -1.2
-70.739719 43.056806 -2.4
-70.739864 43.056845 -0.3
-70.740128 43.056847 0.3
-70.738878 43.056883 -1.2
-70.737425 43.056889 0.0
-70.739544 43.056889 -2.1
-70.739375 43.056914 -2.1
-70.738639 43.056922 -0.9
-70.739755 43.056925 0.3
-70.740044 43.056942 0.3
-70.738711 43.056953 -1.5
-70.737758 43.056956 0.0
-70.739222 43.056978 -2.1
-70.737147 43.056992 0.0
-70.739608 43.057000 0.3
-70.738564 43.057025 -1.8
-70.739050 43.057064 -1.8
-70.737372 43.057075 0.0
-70.738433 43.057075 -1.8
-70.739464 43.057083 -0.2
-70.736858 43.057097 0.0
-70.738897 43.057122 -1.8
-70.738283 43.057133 -1.8
-70.739311 43.057153 0.3
-70.738730 43.057183 -1.8
-70.738125 43.057200 -1.8
-70.737022 43.057203 0.0
-70.737903 43.057203 -1.8
-70.736591 43.057208 0.0
-70.739164 43.057214 -0.3
-70.737980 43.057272 -1.8
-70.738558 43.057275 -1.5
-70.739028 43.057283 -0.3
-70.736394 43.057286 0.3
-70.737514 43.057306 -1.8
-70.737811 43.057350 -1.8
-70.736641 43.057358 0.0
-70.738883 43.057364 -0.3
-70.738266 43.057389 -1.5
-70.737266 43.057403 -2.1
-70.737669 43.057406 -1.5
-70.736497 43.057420 0.0
-70.738655 43.057453 -0.3
-70.737525 43.057489 -1.8
-70.736880 43.057536 -1.5
-70.737364 43.057547 -2.1
-70.737950 43.057556 -1.5
-70.738455 43.057564 -0.3
-70.736566 43.057600 -0.3
-70.738325 43.057617 -0.3
-70.737214 43.057633 -2.4
-70.737653 43.057664 -1.5
-70.738180 43.057692 -0.2
-70.737053 43.057697 -2.1
-70.738036 43.057756 0.0
-70.736866 43.057795 -1.5
-70.737339 43.057803 -1.5
-70.737889 43.057828 0.0
-70.736739 43.057847 -1.2
-70.737172 43.057861 -2.1
-70.737747 43.057900 -0.2
-70.736589 43.057947 -0.9
-70.737030 43.057953 -2.7
-70.737589 43.057972 -0.2
-70.736425 43.057989 -0.6
-70.736886 43.058008 -2.4
-70.734350 43.058045 0.2
-70.737458 43.058061 -0.3
-70.736275 43.058067 0.0
-70.736691 43.058072 -2.4
-70.736116 43.058111 0.0
-70.736533 43.058145 -2.1
-70.737175 43.058192 -0.3
-70.735980 43.058195 0.0
-70.736364 43.058211 -2.1
-70.734516 43.058239 0.3
-70.735814 43.058258 0.0
-70.736211 43.058272 -1.8
-70.736072 43.058322 -1.8
-70.735650 43.058342 0.0
-70.736878 43.058353 -0.3
-70.736730 43.058392 -0.6
-70.735486 43.058403 0.0
-70.735933 43.058403 -1.8
-70.735347 43.058461 0.0
-70.736572 43.058461 -0.9
-70.735803 43.058470 -2.1
-70.734691 43.058511 0.3
-70.735178 43.058520 0.0
-70.736441 43.058522 -1.2
-70.735664 43.058525 -2.1
-70.735064 43.058558 -0.2
-70.736328 43.058578 -1.2
-70.734950 43.058595 -0.2
-70.735558 43.058603 -2.7
-70.734780 43.058636 -0.2
