-70.829354 43.159047 -1.5
-70.827357 43.159244 -2.1
-70.828115 43.159244 -6.4
-70.829282 43.159308 -0.6
-70.826434 43.159344 0.2
-70.829073 43.159367 -1.2
-70.830109 43.159517 0.2
-70.829351 43.159555 -0.2
-70.827345 43.159569 -2.4
-70.829095 43.159586 -0.3
-70.828795 43.159661 -1.2
-70.828145 43.159675 -5.5
-70.830123 43.159769 0.3
-70.829340 43.159814 0.0
-70.826690 43.159836 0.0
-70.828926 43.159900 -0.3
-70.828582 43.159930 -1.5
-70.827326 43.159947 -2.7
-70.830087 43.160014 0.3
-70.826529 43.160039 -0.2
-70.828154 43.160130 -3.7
-70.829340 43.160142 0.0
-70.827298 43.160272 -2.7
-70.828826 43.160305 -0.3
-70.826979 43.160322 -1.2
-70.826493 43.160347 -0.3
-70.830218 43.160383 0.3
-70.829340 43.160389 0.0
-70.828729 43.160508 -0.3
-70.827265 43.160528 -2.4
-70.828168 43.160605 -2.1
-70.830132 43.160628 0.3
-70.829334 43.160653 0.0
-70.826490 43.160683 -0.3
-70.828651 43.160714 -0.6
-70.827120 43.160753 -2.1
-70.829332 43.160922 0.0
-70.830012 43.160930 0.3
-70.828551 43.161000 -0.9
-70.826540 43.161017 -0.6
-70.828151 43.161092 -1.8
-70.827348 43.161175 -1.8
-70.829320 43.161194 0.0
-70.829868 43.161211 0.3
-70.828459 43.161239 -1.2
-70.826565 43.161269 -0.6
-70.828115 43.161464 -1.8
-70.829312 43.161472 -0.2
-70.829765 43.161480 0.3
-70.827268 43.161517 -1.8
-70.827562 43.161528 -6.1
-70.826573 43.161558 -0.9
-70.828384 43.161622 -1.2
-70.827318 43.161778 -4.0
-70.829695 43.161780 0.3
-70.827695 43.161803 -3.4
-70.829320 43.161817 -0.2
-70.826595 43.161861 -1.5
-70.828318 43.161978 -1.8
-70.828143 43.162011 -2.1
-70.829620 43.162064 0.0
-70.827368 43.162075 -4.3
-70.826662 43.162089 -1.8
-70.829251 43.162164 -0.3
-70.827937 43.162172 -2.4
-70.828290 43.162311 -2.4
-70.829557 43.162339 0.0
-70.826720 43.162414 -2.1
-70.827418 43.162422 -4.0
-70.829223 43.162467 -0.3
-70.828234 43.162619 -2.1
-70.829440 43.162667 -0.2
-70.826732 43.162700 -2.4
-70.827437 43.162778 -3.4
-70.829195 43.162814 -0.3
-70.829376 43.162986 -0.2
-70.826782 43.163019 -2.7
-70.827504 43.163061 -3.0
-70.828173 43.163117 -2.7
-70.829162 43.163128 -0.3
-70.828529 43.163142 -2.1
-70.829345 43.163272 -0.3
-70.826812 43.163311 -2.1
-70.827523 43.163422 -2.7
-70.828126 43.163464 -3.0
-70.829037 43.163467 -0.6
-70.828854 43.163564 -1.2
-70.829304 43.163622 -0.2
-70.826837 43.163658 -2.7
-70.827512 43.163789 -2.7
-70.828123 43.163794 -2.7
-70.829323 43.163880 -0.3
-70.829007 43.163889 -1.2
-70.826887 43.164025 -1.5
-70.827551 43.164133 -2.4
-70.829132 43.164144 -0.3
-70.828951 43.164230 -2.1
-70.828148 43.164255 -3.0
-70.826934 43.164455 -0.3
-70.829198 43.164455 -0.2
-70.827559 43.164497 -2.4
-70.828912 43.164547 -2.7
-70.828165 43.164647 -3.0
-70.829312 43.164769 0.0
-70.826976 43.164794 -0.3
-70.827587 43.164811 -2.4
-70.828854 43.164878 -3.4
-70.828170 43.165022 -3.0
-70.827018 43.165072 -0.3
-70.829429 43.165136 0.0
-70.827643 43.165208 -2.4
-70.829104 43.165217 -2.7
-70.828754 43.165230 -3.4
-70.827040 43.165380 -0.2
-70.828151 43.165419 -3.4
-70.829445 43.165455 -0.6
-70.829020 43.165508 -3.0
-70.829301 43.165539 -1.8
-70.828704 43.165592 -4.0
-70.827634 43.165611 -2.1
-70.829426 43.165803 -0.6
-70.828129 43.165828 -3.0
-70.828998 43.165853 -3.0
-70.828598 43.165861 -4.0
-70.829282 43.165969 -2.4
-70.827643 43.165992 -2.1
-70.828912 43.166161 -2.7
-70.828554 43.166164 -4.3
-70.828107 43.166211 -2.7
-70.827662 43.166328 -1.8
-70.829279 43.166436 -2.7
-70.828473 43.166475 -4.0
-70.828884 43.166475 -2.4
-70.828079 43.166603 -2.4
-70.827618 43.166708 -1.5
-70.838650 43.114462 0.3
-70.839312 43.114818 0.0
-70.839732 43.115023 0.0
-70.843834 43.115034 0.0
-70.838047 43.115190 -0.9
-70.840193 43.115248 0.0
-70.842315 43.115376 0.0
-70.840598 43.115426 0.0
-70.844118 43.115448 0.0
-70.837397 43.115526 -0.9
-70.838887 43.115573 -0.9
-70.842637 43.115626 0.0
-70.840995 43.115690 0.0
-70.836200 43.115706 -0.6
-70.837736 43.115784 -1.8
-70.835817 43.115809 0.0
-70.844390 43.115831 0.0
-70.836461 43.115848 -1.2
-70.841387 43.115893 0.2
-70.842995 43.115923 0.0
-70.834914 43.115962 -1.2
-70.836169 43.115973 -0.3
-70.836661 43.115976 -1.5
-70.839868 43.115979 -0.9
-70.838204 43.116040 -6.1
-70.835264 43.116093 -0.9
-70.836556 43.116145 -2.1
-70.841759 43.116170 0.0
-70.834883 43.116181 -1.2
-70.837336 43.116187 -4.3
-70.843376 43.116220 0.0
-70.844626 43.116220 0.0
-70.836961 43.116273 -2.7
-70.835689 43.116293 -0.3
-70.842137 43.116365 0.2
-70.838976 43.116406 -4.0
-70.835281 43.116415 -1.2
-70.837887 43.116434 -7.9
-70.836033 43.116440 -1.8
-70.834761 43.116445 -0.9
-70.840784 43.116470 -0.9
-70.837414 43.116484 -5.2
-70.836231 43.116540 -1.2
-70.843765 43.116543 0.0
-70.834192 43.116565 -0.6
-70.839295 43.116568 -5.2
-70.845009 43.116587 0.0
-70.836450 43.116595 -1.8
-70.842620 43.116598 0.0
-70.835619 43.116626 -2.4
-70.835214 43.116656 -1.5
-70.837751 43.116679 -8.5
-70.841270 43.116679 -1.2
-70.836603 43.116698 -1.2
-70.834444 43.116737 -2.4
-70.838526 43.116740 -7.3
-70.854851 43.107226 0.2
-70.861018 43.107409 -5.5
-70.859995 43.107551 -7.0
-70.862362 43.107554 -3.7
-70.854823 43.107818 0.2
-70.863007 43.107845 -2.7
-70.861015 43.107904 -5.5
-70.859940 43.107918 -6.4
-70.862351 43.107929 -3.7
-70.864287 43.108054 0.2
-70.858229 43.108137 -15.8
-70.855498 43.108154 -0.2
-70.862940 43.108218 -3.0
-70.859954 43.108237 -6.1
-70.862329 43.108248 -3.7
-70.857326 43.108281 -13.4
-70.856232 43.108340 -5.5
-70.864265 43.108384 0.0
-70.865443 43.108384 0.0
-70.861004 43.108426 -5.5
-70.858295 43.108445 -15.8
-70.855495 43.108470 -0.3
-70.854793 43.108490 0.2
-70.862323 43.108565 -3.7
-70.859118 43.108584 -10.4
-70.859954 43.108629 -5.8
-70.855882 43.108643 -3.4
-70.862912 43.108676 -3.0
-70.857279 43.108704 -13.7
-70.856168 43.108720 -8.2
-70.864257 43.108720 0.2
-70.865404 43.108787 0.0
-70.855498 43.108798 -0.6
-70.858359 43.108918 -15.8
-70.862309 43.108918 -3.7
-70.859987 43.108951 -5.8
-70.860962 43.108973 -5.2
-70.864257 43.109076 0.0
-70.862873 43.109104 -3.0
-70.865357 43.109109 0.0
-70.855495 43.109115 -0.9
-70.857265 43.109126 -14.0
-70.856151 43.109162 -8.5
-70.855801 43.109212 -2.7
-70.860109 43.109220 -5.8
-70.854723 43.109226 0.2
-70.862287 43.109231 -3.7
-70.860870 43.109259 -5.2
-70.864245 43.109393 0.0
-70.859309 43.109415 -8.5
-70.855473 43.109431 -0.6
-70.855801 43.109445 -6.7
-70.858407 43.109445 -15.8
-70.860979 43.109501 -5.2
-70.865309 43.109526 0.0
-70.857223 43.109545 -14.6
-70.862851 43.109565 -3.4
-70.862270 43.109581 -3.7
-70.856151 43.109587 -9.4
-70.860137 43.109623 -5.8
-70.855473 43.109737 -0.9
-70.864220 43.109751 -0.2
-70.865259 43.109837 0.0
-70.859298 43.109848 -7.9
-70.858470 43.109893 -15.2
-70.857226 43.109929 -15.5
-70.862251 43.109937 -3.7
-70.854626 43.109948 0.6
-70.861026 43.109995 -5.2
-70.860154 43.109998 -5.8
-70.856140 43.110029 -10.1
-70.862834 43.110031 -3.7
-70.864212 43.110070 -0.2
-70.855473 43.110218 -2.1
-70.865201 43.110248 0.0
-70.859276 43.110281 -7.0
-70.854684 43.110309 0.2
-70.862226 43.110337 -3.7
-70.857229 43.110384 -16.5
-70.858482 43.110387 -14.6
-70.860182 43.110429 -5.8
-70.864193 43.110456 -0.2
-70.856104 43.110490 -9.8
-70.861084 43.110493 -5.2
-70.862834 43.110515 -3.7
-70.865162 43.110573 0.0
-70.855473 43.110623 -2.4
-70.862207 43.110645 -4.0
-70.854712 43.110673 0.6
-70.859254 43.110704 -7.0
-70.860195 43.110770 -5.8
-70.864179 43.110795 0.0
-70.857223 43.110823 -17.1
-70.858448 43.110854 -14.0
-70.856079 43.110918 -8.5
-70.862859 43.110948 -3.7
-70.865143 43.110965 0.0
-70.862193 43.110987 -4.0
-70.861143 43.111051 -5.2
-70.860282 43.111054 -5.8
-70.855473 43.111070 -2.7
-70.859257 43.111087 -6.7
-70.864162 43.111165 0.0
-70.854968 43.111212 -1.2
-70.858395 43.111276 -13.4
-70.862204 43.111301 -4.0
-70.865118 43.111333 0.0
-70.856040 43.111354 -8.2
-70.857162 43.111365 -14.9
-70.862865 43.111387 -3.7
-70.859268 43.111454 -6.4
-70.864140 43.111465 0.0
-70.855434 43.111468 -3.7
-70.854823 43.111479 -0.6
-70.860348 43.111504 -6.1
-70.861195 43.111540 -5.2
-70.866159 43.111586 0.0
-70.862184 43.111651 -4.0
-70.865090 43.111733 0.0
-70.858373 43.111759 -13.1
-70.854740 43.111768 -0.6
-70.856079 43.111784 -8.2
-70.855401 43.111848 -3.7
-70.857187 43.111848 -13.7
-70.864129 43.111864 -0.2
-70.860443 43.111868 -6.1
-70.862859 43.111876 -3.7
-70.859287 43.111881 -6.1
-70.862151 43.111970 -4.0
-70.854665 43.112073 -0.6
-70.857179 43.112115 -12.5
-70.861287 43.112118 -5.2
-70.865068 43.112133 0.0
-70.860512 43.112162 -5.8
-70.864126 43.112169 0.0
-70.858343 43.112215 -12.5
-70.855362 43.112220 -3.7
-70.856151 43.112229 -8.5
-70.859287 43.112231 -6.1
-70.862326 43.112254 -4.0
-70.862868 43.112287 -3.7
-70.857179 43.112340 -13.4
-70.854540 43.112373 -0.3
-70.860170 43.112387 -7.0
-70.861648 43.112459 -4.6
-70.860518 43.112465 -8.8
-70.854690 43.112493 -0.3
-70.866132 43.112492 0.2
-70.865073 43.112505 0.0
-70.864098 43.112519 0.0
-70.864751 43.112525 -0.2
-70.861329 43.112543 -5.2
-70.855332 43.112609 -3.7
-70.859293 43.112615 -7.0
-70.858304 43.112637 -11.3
-70.862248 43.112637 -4.0
-70.860209 43.112712 -11.9
-70.862907 43.112717 -3.4
-70.857209 43.112754 -13.4
-70.865907 43.112755 0.2
-70.861645 43.112787 -4.6
-70.860601 43.112795 -14.3
-70.854682 43.112806 -0.3
-70.856162 43.112834 -8.2
-70.865057 43.112850 0.0
-70.864104 43.112855 -0.2
-70.860009 43.112937 -15.5
-70.858593 43.112965 -9.1
-70.864718 43.112972 0.0
-70.859323 43.113006 -8.5
-70.855337 43.113012 -3.4
-70.862220 43.113042 -3.7
-70.860623 43.113054 -18.0
-70.861326 43.113054 -4.6
-70.865740 43.113075 0.2
-70.858943 43.113079 -7.6
-70.854645 43.113101 -0.3
-70.858248 43.113109 -9.4
-70.861684 43.113118 -4.6
-70.860251 43.113126 -17.4
-70.856162 43.113176 -8.8
-70.865029 43.113197 0.2
-70.864112 43.113208 -0.2
-70.862923 43.113228 -3.0
-70.858851 43.113287 -8.5
-70.857215 43.113323 -12.2
-70.864695 43.113336 0.0
-70.860093 43.113343 -17.1
-70.854626 43.113351 -0.2
-70.855337 43.113362 -1.8
-70.866157 43.113383 0.3
-70.859409 43.113395 -9.4
-70.860654 43.113404 -18.9
-70.865543 43.113453 0.2
-70.862159 43.113464 -3.7
-70.856184 43.113573 -11.0
-70.865001 43.113580 0.2
-70.858248 43.113584 -9.1
-70.864087 43.113583 -0.3
-70.861687 43.113586 -4.6
-70.857793 43.113601 -13.1
-70.862412 43.113628 -3.7
-70.861304 43.113630 -16.5
-70.862937 43.113683 -3.4
-70.866129 43.113683 0.3
-70.854607 43.113701 0.0
-70.860695 43.113712 -15.8
-70.864693 43.113744 0.2
-70.860237 43.113751 -17.1
-70.855379 43.113770 -0.3
-70.859412 43.113784 -7.3
-70.857220 43.113787 -15.2
-70.862137 43.113811 -6.1
-70.865334 43.113847 0.2
-70.861643 43.113875 -11.9
-70.856676 43.113909 -14.9
-70.863479 43.113930 -12.2
-70.864979 43.113944 0.2
-70.864084 43.113983 -9.1
-70.854554 43.114018 0.0
-70.856159 43.114040 -11.6
-70.858195 43.114056 -11.6
-70.863745 43.114067 -11.0
-70.862151 43.114083 -11.3
-70.857220 43.114090 -15.5
-70.862929 43.114111 -12.5
-70.860240 43.114120 -14.3
-70.855373 43.114137 -0.3
-70.859434 43.114151 -8.8
-70.864654 43.114153 -6.7
-70.855568 43.114156 -0.6
-70.860782 43.114161 -13.1
-70.865170 43.114169 0.0
-70.861309 43.114178 -16.2
-70.864076 43.114255 -11.3
-70.854529 43.114259 0.0
-70.855057 43.114298 -0.2
-70.864901 43.114319 -4.0
-70.862132 43.114353 -15.8
-70.862937 43.114355 -13.7
-70.856290 43.114384 -13.1
-70.860268 43.114411 -10.1
-70.855370 43.114437 -0.3
-70.864668 43.114483 -6.4
-70.854834 43.114490 -0.2
-70.860801 43.114494 -11.6
-70.861637 43.114544 -14.3
-70.858207 43.114559 -14.6
-70.857254 43.114565 -14.9
-70.859501 43.114568 -9.8
-70.854498 43.114581 -0.2
-70.865037 43.114594 -4.0
-70.862982 43.114630 -11.0
-70.864162 43.114672 -10.4
-70.861290 43.114714 -12.8
-70.856337 43.114748 -8.8
-70.860295 43.114750 -8.8
-70.862190 43.114758 -14.0
-70.865523 43.114817 -1.5
-70.854832 43.114823 -0.2
-70.854459 43.114870 -0.2
-70.864626 43.114878 0.0
-70.861612 43.114905 -7.3
-70.859490 43.114925 -11.6
-70.864837 43.114958 0.2
-70.858223 43.114970 -15.5
-70.857270 43.115009 -14.6
-70.864251 43.115014 -4.6
-70.865915 43.115014 -2.1
-70.860293 43.115092 -8.2
-70.863001 43.115097 -9.1
-70.854904 43.115115 -0.2
-70.862201 43.115128 -10.1
-70.856390 43.115145 -4.0
-70.861707 43.115180 -5.2
-70.861298 43.115194 -6.1
-70.860779 43.115236 -4.9
-70.854412 43.115245 -0.2
-70.864295 43.115286 -4.9
-70.859540 43.115300 -12.5
-70.864607 43.115317 0.3
-70.861607 43.115389 -3.0
-70.855004 43.115406 -0.3
-70.858237 43.115445 -15.2
-70.857307 43.115448 -12.5
-70.862254 43.115464 -6.1
-70.864329 43.115528 -1.2
-70.860404 43.115530 -4.6
-70.860773 43.115542 -2.1
-70.863112 43.115569 -4.6
-70.856432 43.115634 -1.5
-70.864557 43.115642 0.2
-70.855087 43.115662 -0.3
-70.861598 43.115692 -0.6
-70.859607 43.115725 -13.4
-70.860384 43.115758 -7.6
-70.862359 43.115811 -2.7
-70.863154 43.115850 -3.4
-70.857254 43.115870 -8.8
-70.858209 43.115880 -13.7
-70.863962 43.115883 -0.9
-70.861232 43.115900 -1.2
-70.863429 43.115914 -1.5
-70.856440 43.115920 -0.9
-70.855168 43.115926 -0.3
-70.860798 43.115964 -7.3
-70.864412 43.115972 -3.0
-70.864698 43.116005 0.3
-70.860454 43.116050 -11.0
-70.859657 43.116064 -12.5
-70.863187 43.116122 -1.5
-70.855279 43.116193 -0.3
-70.862379 43.116200 -1.5
-70.864404 43.116269 -2.1
-70.856432 43.116281 -0.6
-70.863918 43.116289 -0.3
-70.858182 43.116300 -11.0
-70.857276 43.116330 -5.8
-70.864762 43.116353 -4.0
-70.861537 43.116378 -6.4
-70.860529 43.116389 -12.8
-70.855340 43.116448 -0.3
-70.859637 43.116486 -11.9
-70.862401 43.116500 -0.9
-70.863307 43.116558 -1.2
-70.864440 43.116622 0.0
-70.861112 43.116658 -11.3
-70.860618 43.116672 -12.8
-70.864832 43.116675 -4.0
-70.856437 43.116717 -0.3
-70.866601 43.108179 0.2
-70.868540 43.108520 0.2
-70.866534 43.108620 0.0
-70.867454 43.108648 0.2
-70.868434 43.108937 0.2
-70.866440 43.109020 0.0
-70.868323 43.109319 0.0
-70.867332 43.109409 0.0
-70.866407 43.109468 0.0
-70.866334 43.109848 0.0
-70.868218 43.110111 0.0
-70.867245 43.110125 0.0
-70.866279 43.110703 0.2
-70.867123 43.110944 0.0
-70.868129 43.110947 0.0
-70.867112 43.111322 0.0
-70.868120 43.111372 0.3
-70.867551 43.111755 0.3
-70.867034 43.112044 0.0
-70.867540 43.112136 0.3
-70.866707 43.112478 0.0
-70.867482 43.112544 -0.3
-70.867168 43.112747 -0.6
-70.866770 43.112797 0.0
-70.866176 43.112983 0.3
-70.867479 43.113039 -0.6
-70.867201 43.113042 -0.9
-70.866862 43.113125 0.0
-70.867179 43.113317 -0.9
-70.866762 43.113394 0.3
-70.867473 43.113411 -0.6
-70.866968 43.113486 0.0
-70.867182 43.113619 -0.6
-70.866701 43.113722 0.3
-70.867465 43.113833 -0.6
-70.867015 43.113842 0.0
-70.867184 43.113936 -0.6
-70.867065 43.114117 -0.2
-70.867212 43.114211 -0.3
-70.867409 43.114417 0.3
-70.867182 43.114550 -0.9
-70.866984 43.114703 -0.9
-70.867365 43.114711 -0.9
-70.867195 43.114858 -0.6
-70.866857 43.115019 -0.6
-70.867115 43.115136 -0.6
-70.866415 43.115280 -2.7
-70.866751 43.115305 -4.0
-70.867068 43.115475 -3.4
-70.867298 43.115486 0.0
-70.866826 43.115503 -4.3
-70.866568 43.115564 -3.4
-70.867295 43.115703 -0.6
-70.866757 43.115772 -3.0
-70.867682 43.115947 0.0
-70.866543 43.115950 -2.4
-70.866770 43.116014 -2.1
-70.867251 43.116075 -1.2
-70.868173 43.116144 0.3
-70.866807 43.116214 -2.7
-70.866476 43.116294 -1.8
-70.868604 43.116342 0.6
-70.867254 43.116475 -0.6
-70.866807 43.116564 -1.8
-70.869073 43.116580 0.6
-70.866440 43.116700 0.0
-70.842979 43.116765 0.0
-70.844284 43.116784 0.0
-70.836958 43.116812 -4.3
-70.838190 43.116843 -9.4
-70.836011 43.116851 -4.0
-70.835678 43.116865 -4.3
-70.845409 43.116870 0.0
-70.839845 43.116873 -6.7
-70.833083 43.116876 -7.9
-70.841762 43.116890 -1.2
-70.834756 43.116951 -10.1
-70.843393 43.116951 0.0
-70.839018 43.116984 -9.8
-70.837334 43.117006 -9.1
-70.836222 43.117031 -2.4
-70.838584 43.117037 -11.3
-70.840145 43.117045 -6.1
-70.836478 43.117112 -2.4
-70.844959 43.117120 -3.0
-70.843062 43.117123 -0.3
-70.845765 43.117123 0.0
-70.833706 43.117126 -11.9
-70.835178 43.117131 -13.1
-70.843779 43.117131 0.0
-70.842209 43.117134 -1.5
-70.840432 43.117159 -7.0
-70.837790 43.117229 -13.4
-70.839020 43.117245 -10.7
-70.834103 43.117259 -9.4
-70.845237 43.117259 -0.6
-70.839668 43.117293 -12.2
-70.836844 43.117312 -4.0
-70.835583 43.117334 -13.7
-70.844201 43.117351 0.0
-70.842709 43.117359 -2.1
-70.833006 43.117362 -10.4
-70.846226 43.117379 0.0
-70.842520 43.117390 -2.1
-70.834411 43.117404 -11.0
-70.839982 43.117404 -10.4
-70.839393 43.117445 -13.4
-70.838162 43.117448 -12.5
-70.841034 43.117459 -10.1
-70.837212 43.117484 -10.1
-70.845712 43.117487 0.0
-70.843162 43.117529 -2.7
-70.844640 43.117537 0.0
-70.840332 43.117543 -11.6
-70.835986 43.117556 -7.3
-70.846601 43.117562 0.3
-70.839745 43.117579 -13.7
-70.837593 43.117618 -11.0
-70.842051 43.117637 -9.4
-70.838598 43.117659 -11.9
-70.833492 43.117679 -9.8
-70.845062 43.117723 -3.4
-70.833092 43.117729 -8.8
-70.841534 43.117731 -12.2
-70.846173 43.117743 0.0
-70.836300 43.117745 -8.2
-70.846926 43.117773 0.3
-70.843595 43.117781 -5.2
-70.840229 43.117801 -13.7
-70.837665 43.117815 -9.1
-70.845509 43.117820 -2.1
-70.839070 43.117829 -13.4
-70.845276 43.117856 -2.1
-70.842790 43.117868 -12.5
-70.833356 43.117876 -9.4
-70.841045 43.117909 -11.9
-70.835581 43.117918 -10.4
-70.836701 43.117934 -6.1
-70.840637 43.117948 -13.4
-70.844104 43.117970 -8.8
-70.838034 43.117976 -12.2
-70.846665 43.117984 0.0
-70.838462 43.117987 -12.5
-70.835878 43.118020 -8.5
-70.842076 43.118031 -14.3
-70.834144 43.118034 -11.9
-70.845898 43.118051 0.3
-70.833819 43.118073 -9.4
-70.839451 43.118081 -14.3
-70.841454 43.118095 -14.6
-70.845182 43.118109 -3.0
-70.844634 43.118112 -9.8
-70.837118 43.118148 -9.1
-70.840984 43.118151 -13.1
-70.842476 43.118184 -14.3
-70.836289 43.118198 -6.7
-70.838915 43.118212 -14.3
-70.847148 43.118218 0.0
-70.839909 43.118240 -14.0
-70.833078 43.118259 -10.7
-70.846315 43.118262 0.3
-70.834728 43.118323 -14.0
-70.837540 43.118323 -10.4
-70.841995 43.118334 -15.8
-70.839293 43.118340 -15.2
-70.834022 43.118351 -11.3
-70.835625 43.118359 -14.6
-70.845132 43.118362 -6.7
-70.838220 43.118376 -13.1
-70.836784 43.118387 -10.1
-70.846743 43.118412 0.3
-70.833417 43.118415 -10.4
-70.840448 43.118415 -14.0
-70.836329 43.118431 -12.8
-70.841065 43.118448 -16.5
-70.838962 43.118479 -14.3
-70.841732 43.118501 -17.1
-70.842326 43.118520 -15.2
-70.839679 43.118531 -15.2
-70.838015 43.118540 -14.3
-70.835239 43.118570 -14.3
-70.845620 43.118573 -5.5
-70.844445 43.118590 -14.6
-70.847195 43.118593 0.2
-70.833756 43.118634 -9.4
-70.846759 43.118634 0.3
-70.847507 43.118648 0.3
-70.839354 43.118654 -16.2
-70.838362 43.118706 -11.9
-70.841720 43.118718 -17.4
-70.842145 43.118720 -17.7
-70.845387 43.118751 -10.4
-70.841118 43.118759 -16.5
-70.843045 43.118759 -16.2
-70.840034 43.118765 -15.8
-70.847632 43.118776 0.3
-70.846065 43.118804 -6.1
-70.844059 43.118806 -18.0
-70.839712 43.118823 -15.2
-70.846973 43.118862 0.3
-70.833442 43.118868 -8.5
-70.834208 43.118868 -13.1
-70.838807 43.118884 -14.6
-70.847248 43.118887 0.3
-70.842698 43.118904 -14.6
-70.835644 43.118906 -15.2
-70.840498 43.118929 -15.8
-70.835920 43.118937 -15.5
-70.838090 43.118948 -14.3
-70.839401 43.118968 -15.5
-70.845073 43.118981 -14.3
-70.841404 43.118993 -15.8
-70.842259 43.119001 -18.3
-70.834567 43.119009 -13.1
-70.847993 43.119015 0.3
-70.846620 43.119018 -6.1
-70.843626 43.119031 -18.9
-70.836529 43.119059 -16.5
-70.838398 43.119059 -12.5
-70.833747 43.119070 -9.1
-70.833031 43.119076 -7.6
-70.842951 43.119079 -18.3
-70.840340 43.119104 -15.5
-70.839198 43.119123 -13.7
-70.840893 43.119140 -15.5
-70.835003 43.119170 -14.9
-70.836015 43.119176 -15.2
-70.845915 43.119184 -12.5
-70.838762 43.119187 -14.3
-70.848201 43.119193 -0.9
-70.847557 43.119195 -0.2
-70.840587 43.119231 -12.2
-70.844798 43.119237 -16.2
-70.846801 43.119237 -7.6
-70.833433 43.119245 -10.4
-70.843232 43.119245 -18.6
-70.848407 43.119251 0.3
-70.847137 43.119276 -6.1
-70.837187 43.119293 -14.6
-70.834067 43.119315 -11.6
-70.842470 43.119320 -17.4
-70.847873 43.119329 -0.6
-70.841343 43.119334 -15.2
-70.835492 43.119340 -14.3
-70.841026 43.119351 -13.1
-70.845082 43.119368 -15.8
-70.846537 43.119418 -14.9
-70.844459 43.119429 -17.4
-70.845584 43.119431 -14.0
-70.841915 43.119437 -16.2
-70.838373 43.119445 -13.4
-70.842845 43.119445 -18.6
-70.848832 43.119445 0.3
-70.840104 43.119484 -15.8
-70.847607 43.119495 -7.9
-70.834428 43.119520 -14.9
-70.839415 43.119520 -16.8
-70.835923 43.119534 -13.7
-70.845332 43.119534 -15.5
-70.836398 43.119537 -13.4
-70.841426 43.119573 -12.8
-70.837865 43.119576 -13.4
-70.848307 43.119584 -3.7
-70.848707 43.119598 -0.9
-70.842387 43.119626 -15.2
-70.844148 43.119626 -19.2
-70.843315 43.119640 -20.7
-70.847926 43.119651 -6.7
-70.840557 43.119673 -14.3
-70.847290 43.119673 -9.4
-70.846212 43.119676 -16.2
-70.849232 43.119690 0.2
-70.836826 43.119709 -11.9
-70.834842 43.119726 -12.5
-70.841773 43.119729 -15.2
-70.837384 43.119734 -11.9
-70.837412 43.119754 -11.9
-70.848201 43.119773 -6.4
-70.845187 43.119793 -13.7
-70.848829 43.119795 -2.7
-70.833125 43.119801 -5.8
-70.840943 43.119843 -14.0
-70.843815 43.119845 -20.7
-70.838379 43.119848 -14.0
-70.846865 43.119865 -14.0
-70.840262 43.119870 -14.3
-70.841393 43.119870 -10.7
-70.847570 43.119870 -9.4
-70.835384 43.119901 -11.9
-70.842243 43.119909 -17.7
-70.849159 43.119948 -2.4
-70.848601 43.119959 -5.5
-70.844798 43.119970 -18.0
-70.837565 43.119993 -11.6
-70.832875 43.120001 -0.6
-70.837065 43.120009 -11.3
-70.841615 43.120012 -14.3
-70.848301 43.120018 -7.9
-70.848293 43.120023 -7.9
-70.845915 43.120031 -17.1
-70.847920 43.120031 -9.1
-70.833653 43.120037 -2.7
-70.840709 43.120043 -14.6
-70.835845 43.120065 -10.1
-70.839026 43.120076 -11.0
-70.846468 43.120084 -15.5
-70.836393 43.120090 -9.4
-70.843440 43.120090 -21.0
-70.847345 43.120093 -12.8
-70.848912 43.120106 -4.0
-70.841268 43.120129 -11.9
-70.833992 43.120179 -4.6
-70.839957 43.120190 -13.1
-70.846834 43.120212 -14.9
-70.835923 43.120245 -5.8
-70.848029 43.120245 -10.4
-70.837432 43.120262 -10.4
-70.839568 43.120270 -13.1
-70.843070 43.120284 -21.9
-70.846054 43.120284 -17.1
-70.837848 43.120298 -11.3
-70.841545 43.120301 -14.3
-70.844420 43.120306 -19.5
-70.848745 43.120326 -10.7
-70.841032 43.120348 -12.8
-70.836637 43.120359 -7.3
-70.834431 43.120390 -4.3
-70.848476 43.120393 -11.6
-70.835359 43.120398 -4.0
-70.839837 43.120415 -12.5
-70.849123 43.120429 -10.7
-70.847393 43.120451 -14.0
-70.838290 43.120476 -11.6
-70.845554 43.120493 -14.0
-70.842701 43.120498 -21.0
-70.848195 43.120504 -11.0
-70.840212 43.120518 -15.8
-70.846740 43.120518 -15.5
-70.833092 43.120520 0.0
-70.836968 43.120526 -7.6
-70.837770 43.120531 -9.4
-70.844832 43.120534 -18.6
-70.848926 43.120568 -12.5
-70.843987 43.120581 -19.8
-70.834857 43.120593 -3.7
-70.847740 43.120593 -10.7
-70.840634 43.120620 -19.8
-70.848626 43.120651 -11.9
-70.838693 43.120681 -11.6
-70.833511 43.120698 0.0
-70.845065 43.120698 -16.8
-70.847151 43.120712 -13.7
-70.842332 43.120726 -21.3
-70.849407 43.120737 -9.8
-70.837462 43.120745 -7.6
-70.838143 43.120776 -8.2
-70.839298 43.120815 -13.1
-70.835304 43.120818 -3.4
-70.840154 43.120826 -17.7
-70.843640 43.120848 -19.5
-70.849057 43.120851 -12.8
-70.834006 43.120870 0.3
-70.845476 43.120876 -18.0
-70.848482 43.120906 -16.8
-70.844637 43.120920 -17.7
-70.841982 43.120923 -21.3
-70.839459 43.120970 -11.0
-70.838945 43.120976 -7.9
-70.835698 43.120981 -3.4
-70.847568 43.120987 -14.0
-70.849348 43.120993 -9.8
-70.837965 43.120995 -6.4
-70.838520 43.121026 -6.1
-70.839726 43.121026 -11.3
-70.834534 43.121073 0.3
-70.845009 43.121140 -17.4
-70.841632 43.121143 -20.1
-70.844182 43.121145 -17.1
-70.843207 43.121151 -19.2
-70.846012 43.121173 -18.0
-70.846970 43.121176 -16.2
-70.848987 43.121179 -12.8
-70.836251 43.121195 -3.0
-70.839904 43.121220 -8.5
-70.844484 43.121229 -12.8
-70.835001 43.121240 0.3
-70.845532 43.121270 -18.0
-70.845532 43.121270 -18.0
-70.838915 43.121304 -4.9
-70.840248 43.121312 -7.3
-70.843729 43.121315 -17.1
-70.844809 43.121331 -16.2
-70.848534 43.121351 -16.2
-70.836643 43.121381 -2.7
-70.841270 43.121384 -12.2
-70.835390 43.121390 0.3
-70.842490 43.121393 -14.9
-70.839423 43.121420 -5.2
-70.838704 43.121429 -5.2
-70.842848 43.121440 -15.8
-70.846593 43.121487 -17.4
-70.844401 43.121498 -13.1
-70.843293 43.121509 -15.2
-70.845487 43.121529 -17.4
-70.835807 43.121556 0.3
-70.837045 43.121556 -2.7
-70.848970 43.121555 -10.4
-70.840912 43.121576 -7.0
-70.844709 43.121576 -11.0
-70.839279 43.121587 -4.0
-70.838193 43.121615 -2.4
-70.845795 43.121634 -18.0
-70.843087 43.121668 -13.7
-70.849234 43.121675 -11.6
-70.837507 43.121684 -1.8
-70.842534 43.121690 -12.5
-70.836232 43.121740 0.3
-70.847023 43.121740 -19.5
-70.839909 43.121751 -4.3
-70.839129 43.121773 -3.7
-70.846309 43.121798 -17.7
-70.841534 43.121804 -7.9
-70.847370 43.121834 -15.5
-70.839620 43.121848 -3.4
-70.843634 43.121856 -13.4
-70.845212 43.121862 -8.5
-70.844423 43.121879 -11.3
-70.847790 43.121884 -17.1
-70.837834 43.121895 -1.5
-70.842112 43.121940 -8.5
-70.836709 43.121951 0.2
-70.840582 43.121987 -3.7
-70.845626 43.121993 -14.6
-70.846695 43.122012 -13.7
-70.838793 43.122023 -1.2
-70.838318 43.122062 -1.2
-70.839979 43.122070 -3.0
-70.840273 43.122090 -3.0
-70.842665 43.122093 -10.1
-70.842668 43.122095 -10.1
-70.847623 43.122098 -16.8
-70.844145 43.122101 -11.9
-70.837140 43.122120 0.2
-70.846940 43.122145 -12.8
-70.841245 43.122187 -3.4
-70.848151 43.122189 -15.5
-70.838740 43.122198 -1.2
-70.849451 43.122219 -13.1
-70.846237 43.122259 -10.4
-70.847793 43.122286 -15.5
-70.837476 43.122320 0.0
-70.844795 43.122320 -10.7
-70.840279 43.122337 -2.4
-70.839118 43.122343 -1.2
-70.841895 43.122343 -3.4
-70.849390 43.122444 -14.6
-70.848920 43.122472 -14.3
-70.844598 43.122484 -10.7
-70.845509 43.122487 -3.4
-70.848576 43.122497 -14.0
-70.843412 43.122501 -6.7
-70.844045 43.122501 -9.4
-70.847195 43.122509 -14.0
-70.848198 43.122508 -14.3
-70.842818 43.122512 -4.3
-70.846234 43.122512 -11.3
-70.842176 43.122515 -2.7
-70.842551 43.122515 -3.0
-70.845148 43.122515 -8.8
-70.845784 43.122518 -6.7
-70.841570 43.122520 -1.2
-70.836870 43.122531 0.3
-70.837218 43.122531 0.3
-70.837909 43.122531 0.3
-70.846743 43.122531 -14.0
-70.847668 43.122530 -14.3
-70.837568 43.122537 0.3
-70.840123 43.122554 -0.9
-70.840859 43.122554 -0.9
-70.840462 43.122559 -0.9
-70.838273 43.122562 0.0
-70.838943 43.122565 -0.9
-70.838604 43.122570 -0.6
-70.839351 43.122570 -0.9
-70.841304 43.122570 -0.9
-70.839773 43.122573 -0.9
-70.840693 43.122656 -0.3
-70.845509 43.122726 -5.5
-70.845176 43.122731 -10.4
-70.840029 43.122756 -0.9
-70.843932 43.122765 -10.4
-70.847384 43.122767 -14.0
-70.841912 43.122787 -0.9
-70.845882 43.122801 -12.2
-70.841157 43.122806 -1.2
-70.847932 43.122828 -14.0
-70.848873 43.122828 -14.0
-70.840940 43.122845 -0.6
-70.843232 43.122893 -3.4
-70.844479 43.122945 -9.1
-70.838809 43.122970 -0.6
-70.849237 43.122972 -14.9
-70.840473 43.122987 -1.2
-70.846390 43.122987 -12.8
-70.845329 43.123009 -12.5
-70.841268 43.123043 -0.6
-70.841604 43.123081 -0.6
-70.844873 43.123087 -10.4
-70.847940 43.123125 -10.1
-70.840887 43.123154 -0.9
-70.843845 43.123165 -4.0
-70.839329 43.123184 -0.6
-70.847540 43.123189 -12.2
-70.842818 43.123195 -1.2
-70.845157 43.123209 -11.3
-70.847026 43.123242 -11.3
-70.848498 43.123247 -8.8
-70.845815 43.123262 -14.6
-70.841623 43.123320 0.0
-70.841329 43.123323 -0.6
-70.839648 43.123334 -0.9
-70.836968 43.123381 0.3
-70.846065 43.123383 -14.3
-70.845582 43.123420 -13.1
-70.848026 43.123419 -9.1
-70.844432 43.123434 -4.3
-70.841812 43.123462 0.0
-70.842493 43.123468 -0.6
-70.847701 43.123475 -9.4
-70.846409 43.123547 -14.0
-70.837465 43.123573 0.3
-70.842215 43.123579 -0.9
-70.845968 43.123586 -12.2
-70.849087 43.123589 -8.5
-70.843848 43.123604 -1.5
-70.840157 43.123606 -0.6
-70.842501 43.123681 -1.2
-70.848048 43.123728 -7.9
-70.842143 43.123756 -0.6
-70.840657 43.123762 -0.6
-70.845032 43.123765 -4.3
-70.845387 43.123772 -4.9
-70.846604 43.123800 -12.5
-70.843001 43.123804 -1.2
-70.838004 43.123868 0.3
-70.845662 43.123867 -4.6
-70.843432 43.123890 -1.2
-70.848265 43.123892 -7.3
-70.848770 43.123955 -8.5
-70.841129 43.123976 -0.6
-70.847090 43.123994 -10.1
-70.845926 43.123997 -4.9
-70.843648 43.124006 -1.5
-70.842487 43.124020 -0.3
-70.845618 43.124055 -3.7
-70.838504 43.124079 0.2
-70.847765 43.124103 -6.1
-70.849301 43.124103 -12.5
-70.846195 43.124130 -5.2
-70.844218 43.124156 -1.8
-70.845143 43.124164 -4.0
-70.841568 43.124195 -0.6
-70.848937 43.124211 -13.7
-70.846493 43.124250 -5.5
-70.839040 43.124268 -0.2
-70.842795 43.124276 -0.9
-70.848220 43.124303 -4.3
-70.844859 43.124339 -1.8
-70.846243 43.124339 -4.3
-70.846718 43.124392 -6.4
-70.845473 43.124430 -3.7
-70.849320 43.124442 -14.6
-70.841959 43.124445 -0.9
-70.839595 43.124498 -0.2
-70.843101 43.124509 -0.9
-70.845282 43.124555 -2.1
-70.847109 43.124586 -8.5
-70.848173 43.124597 -6.4
-70.848890 43.124605 -6.1
-70.846795 43.124636 -4.9
-70.842473 43.124676 -0.6
-70.845682 43.124719 -2.4
-70.843445 43.124748 -0.9
-70.840079 43.124768 -0.2
-70.849473 43.124778 -5.8
-70.845493 43.124789 -2.7
-70.847032 43.124803 -5.5
-70.848220 43.124814 -7.0
-70.845879 43.124847 -3.4
-70.847562 43.124855 -9.8
-70.842901 43.124876 -0.6
-70.849234 43.124897 -4.9
-70.847332 43.124939 -9.1
-70.840515 43.124959 -0.3
-70.847854 43.124989 -7.9
-70.846115 43.125017 -2.7
-70.849468 43.125036 -6.7
-70.845532 43.125064 -3.0
-70.847562 43.125103 -10.1
-70.843370 43.125122 -0.9
-70.844007 43.125180 -0.9
-70.846509 43.125189 -3.0
-70.847859 43.125194 -7.3
-70.841057 43.125218 -0.3
-70.848348 43.125275 -5.8
-70.848604 43.125319 -5.2
-70.843804 43.125367 -0.9
-70.845518 43.125367 -2.1
-70.844470 43.125375 -0.9
-70.846879 43.125411 -4.6
-70.849287 43.125442 -4.6
-70.848187 43.125458 -5.5
-70.841593 43.125465 -0.3
-70.848501 43.125522 -4.6
-70.845012 43.125528 -0.9
-70.847265 43.125575 -6.1
-70.844262 43.125619 -0.9
-70.845548 43.125633 -1.8
-70.842059 43.125637 -0.3
-70.848204 43.125730 -6.1
-70.845412 43.125747 -1.2
-70.847718 43.125764 -8.5
-70.844729 43.125780 -0.9
-70.849045 43.125814 -5.5
-70.848668 43.125819 -4.6
-70.842587 43.125880 -0.3
-70.848382 43.125922 -4.6
-70.845901 43.125975 -1.5
-70.848126 43.126005 -6.4
-70.845184 43.126075 -0.6
-70.843187 43.126083 -0.2
-70.847868 43.126133 -7.3
-70.846370 43.126150 -1.5
-70.848570 43.126219 -5.2
-70.848243 43.126264 -6.7
-70.845698 43.126322 -0.6
-70.843643 43.126330 -0.3
-70.846812 43.126353 -1.5
-70.849007 43.126433 -5.5
-70.848295 43.126514 -5.8
-70.844145 43.126522 -0.3
-70.846104 43.126542 -0.6
-70.847295 43.126592 -2.7
-70.849354 43.126622 -7.0
-70.848970 43.126717 -5.5
-70.844712 43.126728 -0.3
-70.846609 43.126744 -0.9
-70.847776 43.126769 -5.2
-70.848354 43.126780 -4.3
-70.847159 43.126936 -1.5
-70.845207 43.126950 -0.3
-70.848312 43.127025 -3.4
-70.849184 43.127069 -4.0
-70.848604 43.127133 -1.8
-70.845732 43.127197 -0.3
-70.847687 43.127211 -2.7
-70.848793 43.127258 -2.1
-70.848254 43.127403 -2.7
-70.846276 43.127436 -0.3
-70.849290 43.127478 -0.9
-70.848529 43.127569 -2.1
-70.846748 43.127617 -0.3
-70.848757 43.127644 -2.7
-70.849395 43.127736 -0.9
-70.847293 43.127833 -0.3
-70.849179 43.127853 -0.6
-70.848737 43.127911 -3.7
-70.847509 43.127933 -0.6
-70.847740 43.128025 -1.8
-70.848782 43.128147 -3.7
-70.848254 43.128261 -3.0
-70.848743 43.128472 -3.7
-70.849293 43.128642 -1.8
-70.847576 43.129317 -0.3
-70.848707 43.129444 -1.5
-70.848068 43.129483 -0.6
-70.849104 43.129508 -4.6
-70.849451 43.129622 -4.9
-70.848526 43.129628 -2.1
-70.847337 43.129753 -0.2
-70.849045 43.129767 -4.3
-70.847790 43.129905 -0.3
-70.848326 43.130103 -0.3
-70.848829 43.130314 -0.6
-70.849126 43.130403 -0.9
-70.849365 43.130486 -1.8
-70.848512 43.130705 -0.3
-70.848993 43.130917 -0.3
-70.849420 43.131108 -0.3
-70.832923 43.131570 -0.3
-70.832959 43.132394 -0.2
-70.848654 43.132864 -0.3
-70.849154 43.133030 -0.3
-70.846315 43.133178 -0.2
-70.846757 43.133322 -0.3
-70.857293 43.116764 -4.0
-70.858173 43.116783 -8.8
-70.861601 43.116783 -10.4
-70.862512 43.116869 -10.7
-70.864401 43.116892 -1.2
-70.859670 43.116903 -11.6
-70.864882 43.116917 -0.6
-70.860679 43.116953 -13.1
-70.861812 43.116955 -10.4
-70.863009 43.116972 -11.0
-70.861304 43.116978 -12.5
-70.863487 43.116980 -3.7
-70.863712 43.117025 -2.4
-70.856437 43.117030 -0.3
-70.865018 43.117055 -2.1
-70.863970 43.117069 -3.0
-70.862537 43.117097 -11.6
-70.864270 43.117097 -1.2
-70.864476 43.117125 -0.3
-70.865629 43.117175 -7.0
-70.857329 43.117178 -2.1
-70.861859 43.117178 -12.5
-70.861204 43.117214 -13.4
-70.860745 43.117239 -12.8
-70.858190 43.117267 -7.3
-70.859687 43.117322 -11.0
-70.856443 43.117389 -0.3
-70.863398 43.117394 -11.9
-70.865068 43.117453 -0.6
-70.865465 43.117458 -1.5
-70.860165 43.117500 -11.0
-70.864490 43.117539 -1.2
-70.860851 43.117550 -11.9
-70.862543 43.117592 -14.3
-70.857326 43.117619 -0.9
-70.863862 43.117625 -14.6
-70.863223 43.117678 -13.4
-70.856445 43.117683 -0.3
-70.861904 43.117694 -11.9
-70.861248 43.117703 -11.3
-70.862848 43.117708 -11.6
-70.860559 43.117714 -11.0
-70.859712 43.117722 -10.7
-70.860179 43.117722 -11.0
-70.858229 43.117739 -5.2
-70.865501 43.117817 -6.1
-70.864368 43.117853 -16.2
-70.860932 43.117861 -11.3
-70.863537 43.117872 -14.6
-70.855743 43.117878 -0.3
-70.862501 43.117892 -13.1
-70.865093 43.117897 -15.5
-70.856159 43.117992 -0.3
-70.857326 43.117997 -0.6
-70.859748 43.118092 -10.1
-70.860720 43.118100 -9.8
-70.856720 43.118136 -0.6
-70.860245 43.118139 -10.1
-70.858237 43.118189 -2.7
-70.862501 43.118194 -11.0
-70.864332 43.118197 -16.2
-70.861329 43.118239 -10.7
-70.865509 43.118250 -11.9
-70.865095 43.118272 -16.8
-70.857245 43.118292 -0.9
-70.863484 43.118380 -12.8
-70.857787 43.118419 -0.9
-70.859740 43.118453 -7.0
-70.862715 43.118464 -9.8
-70.860909 43.118467 -7.6
-70.864318 43.118569 -14.6
-70.865068 43.118578 -15.8
-70.860265 43.118611 -7.3
-70.862482 43.118611 -10.1
-70.865504 43.118617 -13.7
-70.861676 43.118675 -8.8
-70.858237 43.118683 -0.9
-70.861376 43.118750 -9.1
-70.862795 43.118822 -8.8
-70.858904 43.118825 -2.7
-70.863490 43.118825 -10.4
-70.859712 43.118844 -3.4
-70.860882 43.118858 -4.6
-70.864284 43.118861 -12.8
-70.865045 43.118894 -14.0
-70.860632 43.118903 -4.0
-70.861145 43.118958 -5.8
-70.862432 43.118983 -9.1
-70.859468 43.118994 -1.8
-70.860362 43.119008 -4.0
-70.865495 43.119025 -13.7
-70.861690 43.119047 -7.0
-70.864268 43.119175 -11.3
-70.860918 43.119217 -2.7
-70.861445 43.119225 -5.5
-70.865043 43.119225 -13.4
-70.862484 43.119253 -6.4
-70.860118 43.119258 -2.1
-70.859712 43.119267 -1.2
-70.860612 43.119286 -1.8
-70.863468 43.119322 -9.1
-70.861218 43.119386 -3.4
-70.865551 43.119428 -14.3
-70.861720 43.119439 -3.7
-70.861732 43.119444 -6.4
-70.860909 43.119489 -2.1
-70.851773 43.119498 0.6
-70.862957 43.119539 -7.3
-70.864237 43.119553 -10.4
-70.852434 43.119572 0.6
-70.864995 43.119572 -13.4
-70.862482 43.119583 -4.0
-70.859687 43.119586 -0.9
-70.852054 43.119605 0.3
-70.860554 43.119655 -0.6
-70.852843 43.119683 -0.6
-70.849559 43.119715 0.3
-70.861490 43.119747 -2.7
-70.852529 43.119775 -1.8
-70.863009 43.119797 -6.1
-70.865559 43.119805 -15.5
-70.864215 43.119817 -9.8
-70.863432 43.119836 -7.9
-70.851998 43.119842 0.3
-70.860887 43.119842 -0.3
-70.861784 43.119844 -2.4
-70.853362 43.119880 -2.7
-70.859651 43.119889 -0.9
-70.852854 43.119894 -2.4
-70.849912 43.119909 0.3
-70.862345 43.119908 -2.4
-70.864970 43.119922 -13.4
-70.849701 43.119926 0.2
-70.861165 43.119928 -2.4
-70.852548 43.119983 -1.8
-70.860520 43.119986 -0.6
-70.853748 43.119989 -3.0
-70.862012 43.120000 -1.5
-70.851745 43.120050 -2.1
-70.853232 43.120064 -0.9
-70.862565 43.120072 -3.0
-70.864212 43.120092 -9.1
-70.854168 43.120117 -3.0
-70.849557 43.120120 -0.9
-70.853434 43.120125 -0.6
-70.863076 43.120128 -4.9
-70.850157 43.120165 0.0
-70.852909 43.120164 0.2
-70.861826 43.120172 -1.5
-70.853645 43.120192 -1.2
-70.860923 43.120214 -0.9
-70.865551 43.120217 -17.1
-70.854670 43.120222 -5.2
-70.860468 43.120228 0.0
-70.851012 43.120275 -0.3
-70.864920 43.120275 -13.7
-70.862665 43.120278 -1.5
-70.851484 43.120289 -3.0
-70.853998 43.120305 -3.4
-70.861534 43.120311 -1.8
-70.850037 43.120323 -1.8
-70.850895 43.120347 -0.3
-70.850670 43.120361 -0.2
-70.854868 43.120364 0.6
-70.849537 43.120379 -7.3
-70.853220 43.120380 0.0
-70.863451 43.120408 -5.2
-70.862390 43.120411 -1.2
-70.864159 43.120428 -6.1
-70.860393 43.120433 0.0
-70.861162 43.120453 -0.9
-70.854340 43.120455 -7.0
-70.863126 43.120472 -3.0
-70.851068 43.120475 -0.9
-70.850434 43.120495 -1.5
-70.853548 43.120530 -0.3
-70.851268 43.120542 -0.3
-70.865562 43.120542 -18.6
-70.854701 43.120564 -3.4
-70.849862 43.120568 -4.3
-70.851776 43.120592 0.3
-70.864912 43.120605 -14.6
-70.860943 43.120642 0.3
-70.861576 43.120647 -0.9
-70.863143 43.120653 -1.8
-70.854929 43.120661 -3.4
-70.861798 43.120667 -0.6
-70.862587 43.120669 -0.9
-70.862368 43.120680 -1.2
-70.864120 43.120686 -6.1
-70.850987 43.120694 -3.0
-70.853865 43.120705 -1.2
-70.852165 43.120747 0.3
-70.863457 43.120747 -3.0
-70.860326 43.120769 -0.3
-70.855112 43.120772 0.6
-70.860587 43.120805 -2.1
-70.854087 43.120817 -3.0
-70.851637 43.120833 -6.7
-70.850554 43.120842 -6.7
-70.863179 43.120861 -3.4
-70.862362 43.120869 -1.8
-70.864857 43.120905 -16.2
-70.865570 43.120905 -20.1
-70.852557 43.120911 0.3
-70.864057 43.120922 -7.6
-70.861865 43.120939 -2.7
-70.854959 43.120964 -3.4
-70.850882 43.120983 -4.0
-70.851968 43.121011 -2.7
-70.860259 43.121011 -2.1
-70.861176 43.121011 -2.7
-70.862582 43.121025 -2.1
-70.850090 43.121064 -4.9
-70.864584 43.121078 -15.5
-70.865129 43.121086 -18.3
-70.852945 43.121111 0.3
-70.851109 43.121125 -5.2
-70.860965 43.121133 -2.4
-70.852282 43.121161 -5.8
-70.862368 43.121164 -4.3
-70.863204 43.121186 -6.4
-70.850598 43.121192 -4.9
-70.864059 43.121208 -10.4
-70.865540 43.121214 -19.8
-70.855034 43.121219 -4.9
-70.864848 43.121222 -17.1
-70.860407 43.121242 -6.1
-70.861840 43.121255 -4.6
-70.849859 43.121264 -6.1
-70.851579 43.121275 -6.4
-70.861565 43.121289 -5.2
-70.853370 43.121294 -0.3
-70.863757 43.121330 -9.1
-70.854770 43.121339 -6.1
-70.861143 43.121361 -6.7
-70.852770 43.121372 -6.1
-70.865298 43.121375 -18.0
-70.850879 43.121397 -5.2
-70.849587 43.121403 -9.1
-70.859984 43.121417 -4.6
-70.864415 43.121417 -11.9
-70.855012 43.121439 -6.4
-70.850265 43.121442 -5.5
-70.853707 43.121447 -3.4
-70.862351 43.121469 -9.1
-70.851120 43.121486 -2.1
-70.864034 43.121486 -9.4
-70.851990 43.121492 -7.9
-70.863684 43.121497 -7.9
-70.863318 43.121503 -6.7
-70.865904 43.121514 -17.7
-70.864840 43.121525 -15.2
-70.859582 43.121530 -3.0
-70.851654 43.121536 -6.4
-70.860920 43.121539 -5.8
-70.855362 43.121547 -2.7
-70.853218 43.121586 -10.4
-70.861868 43.121589 -8.2
-70.851387 43.121605 -2.7
-70.850782 43.121617 -3.0
-70.865559 43.121617 -17.7
-70.855629 43.121636 -1.5
-70.865190 43.121642 -17.1
-70.855768 43.121683 -3.4
-70.866145 43.121686 -17.4
-70.860107 43.121700 -6.4
-70.859209 43.121708 -1.5
-70.851018 43.121717 -2.1
-70.863587 43.121719 -13.7
-70.852518 43.121742 -7.3
-70.855020 43.121742 -10.1
-70.850118 43.121744 -6.4
-70.851801 43.121789 -4.6
-70.858584 43.121789 -1.2
-70.864026 43.121789 -13.4
-70.858987 43.121792 -0.9
-70.856151 43.121811 -4.9
-70.862382 43.121811 -11.0
-70.861507 43.121814 -8.2
-70.853815 43.121819 -10.1
-70.861048 43.121819 -7.0
-70.863309 43.121825 -14.3
-70.864804 43.121828 -14.6
-70.858784 43.121844 -1.5
-70.858259 43.121853 -1.2
-70.850437 43.121861 -6.1
-70.857873 43.121861 -2.1
-70.857504 43.121864 -2.4
-70.852807 43.121869 -6.7
-70.857054 43.121869 -1.2
-70.865215 43.121917 -14.9
-70.852262 43.121919 -7.3
-70.851648 43.121922 -7.3
-70.862998 43.121953 -13.1
-70.856737 43.121958 -3.0
-70.861918 43.121983 -10.4
-70.853129 43.121997 -5.5
-70.858398 43.122003 -6.1
-70.849823 43.122005 -10.7
-70.865590 43.122008 -14.6
-70.856387 43.122019 -5.2
-70.850809 43.122022 -9.4
-70.856018 43.122050 -8.5
-70.864034 43.122050 -13.1
-70.854407 43.122055 -6.1
-70.862429 43.122075 -9.8
-70.855090 43.122083 -0.9
-70.856954 43.122089 -0.9
-70.855607 43.122097 -8.2
-70.863584 43.122100 -9.8
-70.857998 43.122114 -7.9
-70.857218 43.122119 -3.4
-70.853904 43.122128 -6.1
-70.864782 43.122133 -14.3
-70.866065 43.122136 -14.6
-70.852079 43.122139 -9.1
-70.859993 43.122139 -5.5
-70.865257 43.122153 -13.4
-70.853509 43.122167 -7.6
-70.854723 43.122172 -0.6
-70.860909 43.122197 -8.5
-70.851351 43.122219 -11.0
-70.863165 43.122222 -5.8
-70.862054 43.122225 -10.1
-70.850362 43.122230 -11.6
-70.857709 43.122239 -7.0
-70.852943 43.122242 -4.6
-70.852612 43.122258 -9.4
-70.854484 43.122289 -4.6
-70.865565 43.122289 -14.0
-70.854104 43.122311 -6.7
-70.862532 43.122333 -5.5
-70.861490 43.122342 -9.8
-70.857426 43.122364 -9.1
-70.853782 43.122369 -9.4
-70.855315 43.122378 -6.1
-70.864779 43.122378 -11.3
-70.853468 43.122405 -5.8
-70.853151 43.122414 -5.2
-70.865257 43.122428 -11.6
-70.864234 43.122430 -5.8
-70.852801 43.122439 -9.4
-70.861198 43.122447 -9.8
-70.852418 43.122453 -10.4
-70.852059 43.122464 -10.4
-70.851684 43.122469 -10.1
-70.858243 43.122475 -12.8
-70.860890 43.122475 -10.1
-70.851326 43.122478 -9.8
-70.863512 43.122480 -2.7
-70.850962 43.122486 -11.3
-70.857009 43.122489 -9.8
-70.855554 43.122503 -8.2
-70.856109 43.122503 -13.7
-70.849934 43.122505 -13.7
-70.850432 43.122505 -12.5
-70.863123 43.122508 -1.2
-70.866051 43.122519 -10.7
-70.859909 43.122542 -9.4
-70.858637 43.122586 -13.7
-70.864012 43.122597 -2.7
-70.865526 43.122608 -11.9
-70.860609 43.122644 -10.4
-70.853484 43.122667 -9.1
-70.864257 43.122667 -2.7
-70.856629 43.122669 -14.6
-70.857332 43.122672 -14.6
-70.859054 43.122689 -12.2
-70.854551 43.122697 -11.3
-70.849515 43.122700 -14.3
-70.855959 43.122722 -13.7
-70.857993 43.122733 -13.4
-70.851351 43.122739 -7.9
-70.865207 43.122747 -7.0
-70.859990 43.122767 -10.4
-70.862482 43.122767 -9.8
-70.864776 43.122767 -4.6
-70.861932 43.122789 -9.4
-70.859457 43.122794 -11.0
-70.852718 43.122803 -9.8
-70.861151 43.122805 -10.1
-70.861473 43.122814 -9.8
-70.858607 43.122825 -10.7
-70.856234 43.122850 -15.8
-70.854004 43.122858 -7.3
-70.864234 43.122883 -7.0
-70.860809 43.122889 -10.4
-70.855068 43.122897 -6.4
-70.865573 43.122903 -8.8
-70.855818 43.122911 -12.8
-70.866012 43.122953 -6.7
-70.863976 43.122972 -3.4
-70.849984 43.122975 -14.3
-70.853168 43.122975 -10.7
-70.865240 43.122989 -7.6
-70.859979 43.122997 -10.1
-70.856598 43.123000 -17.4
-70.864737 43.123011 -8.5
-70.863070 43.123030 -7.0
-70.852054 43.123036 -8.5
-70.859604 43.123042 -10.1
-70.860429 43.123044 -10.1
-70.854448 43.123055 -7.0
-70.864215 43.123103 -2.7
-70.855443 43.123105 -5.5
-70.861148 43.123117 -9.4
-70.858751 43.123125 -11.6
-70.856920 43.123147 -15.5
-70.865748 43.123178 -5.8
-70.850529 43.123183 -11.0
-70.862501 43.123186 -10.7
-70.865759 43.123194 -5.8
-70.852404 43.123197 -7.0
-70.855770 43.123205 -4.9
-70.860759 43.123214 -10.7
-70.861829 43.123222 -9.1
-70.853682 43.123225 -7.6
-70.855004 43.123230 -4.0
-70.858168 43.123236 -11.6
-70.865079 43.123242 -4.9
-70.849745 43.123253 -15.5
-70.865309 43.123255 -6.7
-70.861390 43.123300 -10.7
-70.857229 43.123308 -13.4
-70.850890 43.123317 -11.6
-70.852662 43.123317 -8.5
-70.854718 43.123317 -2.1
-70.859709 43.123325 -10.7
-70.856218 43.123369 -7.6
-70.863929 43.123372 -9.8
-70.855351 43.123375 -1.2
-70.865965 43.123378 -5.2
-70.857504 43.123380 -12.8
-70.864726 43.123397 -3.0
-70.850023 43.123408 -12.2
-70.855920 43.123411 -5.2
-70.854237 43.123450 -1.2
-70.851195 43.123453 -8.5
-70.855534 43.123472 -2.4
-70.852962 43.123492 -7.9
-70.859993 43.123519 -11.0
-70.856940 43.123525 -13.4
-70.862504 43.123530 -10.7
-70.850259 43.123536 -14.3
-70.864204 43.123547 -8.5
-70.865418 43.123564 -4.9
-70.854554 43.123578 -2.4
-70.860709 43.123603 -11.3
-70.856304 43.123608 -6.7
-70.851701 43.123614 -7.3
-70.863234 43.123628 -10.1
-70.853220 43.123639 -9.4
-70.864673 43.123644 -8.2
-70.853809 43.123647 -8.2
-70.857879 43.123680 -12.8
-70.854759 43.123683 -4.6
-70.855945 43.123686 -7.0
-70.855632 43.123703 -3.0
-70.863923 43.123708 -9.1
-70.850757 43.123736 -13.1
-70.859579 43.123736 -11.6
-70.865387 43.123778 -9.4
-70.865957 43.123800 -6.7
-70.852348 43.123811 -7.6
-70.861259 43.123817 -7.6
-70.855093 43.123850 -7.6
-70.862468 43.123880 -8.8
-70.856809 43.123883 -12.8
-70.851218 43.123908 -11.0
-70.853198 43.123911 -8.2
-70.864668 43.123911 -9.4
-70.863207 43.123914 -7.0
-70.854448 43.123919 -9.8
-70.858376 43.123919 -9.1
-70.864170 43.123919 -8.8
-70.853676 43.123925 -10.7
-70.861659 43.123933 -6.1
-70.855354 43.123939 -9.4
-70.857279 43.123942 -17.4
-70.860668 43.123944 -11.6
-70.862023 43.123950 -8.2
-70.859151 43.123978 -12.5
-70.865379 43.123986 -6.1
-70.852470 43.123989 -7.3
-70.865904 43.124008 -3.4
-70.861223 43.124036 -4.9
-70.863851 43.124036 -8.5
-70.849834 43.124039 -13.4
-70.854076 43.124119 -6.4
-70.851693 43.124130 -8.8
-70.855048 43.124130 0.0
-70.853765 43.124142 -8.8
-70.857737 43.124155 -14.0
-70.852826 43.124164 -7.9
-70.855887 43.124178 -14.6
-70.865443 43.124178 -8.5
-70.860620 43.124186 -9.1
-70.861534 43.124186 -7.9
-70.858823 43.124219 -11.9
-70.864645 43.124219 -10.7
-70.865884 43.124219 -6.7
-70.859507 43.124230 -10.1
-70.852132 43.124264 -5.8
-70.861187 43.124272 -7.6
-70.863207 43.124278 -6.1
-70.854070 43.124311 -5.5
-70.857390 43.124311 -13.1
-70.864109 43.124311 -8.2
-70.856970 43.124322 -13.4
-70.853648 43.124325 -3.7
-70.853240 43.124330 -3.7
-70.854415 43.124339 -4.0
-70.850434 43.124350 -11.6
-70.851837 43.124353 -7.0
-70.863823 43.124358 -7.0
-70.852904 43.124364 -3.0
-70.854998 43.124364 -6.7
-70.860832 43.124372 -8.2
-70.856045 43.124378 -11.6
-70.855537 43.124383 -9.1
-70.856495 43.124394 -10.7
-70.862548 43.124394 -6.1
-70.859062 43.124408 -12.2
-70.861712 43.124411 -8.2
-70.849962 43.124419 -11.9
-70.865465 43.124419 -6.7
-70.858132 43.124422 -14.3
-70.854709 43.124425 -4.6
-70.851507 43.124492 -9.1
-70.862229 43.124500 -7.6
-70.859465 43.124539 -12.5
-70.864670 43.124539 -9.4
-70.852370 43.124550 -2.7
-70.850793 43.124555 -8.2
-70.856826 43.124578 -7.6
-70.863676 43.124589 -2.1
-70.860237 43.124592 -10.7
-70.854212 43.124605 -2.7
-70.858626 43.124605 -13.7
-70.850232 43.124630 -7.9
-70.861837 43.124647 -6.7
-70.859004 43.124650 -12.5
-70.865795 43.124650 -7.0
-70.853943 43.124667 -2.1
-70.849787 43.124672 -8.8
-70.852770 43.124683 -0.9
-70.864123 43.124692 -2.1
-70.854523 43.124700 -0.3
-70.857095 43.124711 -9.8
-70.865493 43.124717 -7.0
-70.857920 43.124719 -13.1
-70.861582 43.124753 -2.1
-70.851612 43.124786 -7.9
-70.861084 43.124794 -10.4
-70.850901 43.124811 -6.4
-70.861362 43.124811 -6.4
-70.863212 43.124817 -4.0
-70.859673 43.124825 -11.9
-70.859070 43.124836 -14.0
-70.862368 43.124867 -6.7
-70.865779 43.124869 -6.7
-70.864707 43.124878 -3.4
-70.858112 43.124897 -11.0
-70.850532 43.124911 -3.4
-70.851184 43.124919 -5.2
-70.859384 43.124936 -10.7
-70.857590 43.124967 -11.3
-70.860884 43.124978 -10.4
-70.865518 43.124994 -5.8
-70.863162 43.125000 -6.7
-70.850323 43.125008 -4.9
-70.851434 43.125022 -5.5
-70.850884 43.125050 -4.3
-70.863732 43.125053 -8.2
-70.864104 43.125053 -7.0
-70.850032 43.125072 -4.6
-70.861784 43.125086 -1.5
-70.858959 43.125089 -12.8
-70.857090 43.125097 -1.2
-70.857943 43.125119 -11.0
-70.860484 43.125122 -11.6
-70.861518 43.125180 -9.1
-70.858529 43.125186 -7.9
-70.851901 43.125208 -7.6
-70.862345 43.125208 -6.1
-70.861065 43.125228 -8.8
-70.850784 43.125230 -4.3
-70.864704 43.125250 -4.9
-70.858176 43.125261 -12.5
-70.856609 43.125269 0.0
-70.851145 43.125272 -2.1
-70.849840 43.125275 -7.0
-70.851140 43.125292 -2.1
-70.859384 43.125292 -7.3
-70.857151 43.125294 -1.8
-70.860023 43.125300 -12.8
-70.865579 43.125311 -7.0
-70.850170 43.125322 -5.5
-70.863226 43.125342 -9.4
-70.864068 43.125355 -8.8
-70.858926 43.125375 -8.2
-70.862945 43.125375 -9.1
-70.863684 43.125389 -11.6
-70.852359 43.125408 -8.2
-70.850634 43.125414 -4.6
-70.856115 43.125472 -0.3
-70.860459 43.125478 -10.7
-70.856690 43.125489 -0.3
-70.857943 43.125489 -9.1
-70.861620 43.125500 -9.8
-70.864704 43.125503 -9.1
-70.859826 43.125539 -3.7
-70.865601 43.125544 -7.0
-70.851226 43.125547 -3.7
-70.850309 43.125553 -7.6
-70.852854 43.125578 -3.0
