-70.586965 43.129703 -22.6
-70.583107 43.129750 -21.0
-70.583632 43.129761 -24.4
-70.584310 43.129781 -24.4
-70.590427 43.129797 -20.7
-70.584852 43.129808 -23.2
-70.585671 43.129836 -22.9
-70.586279 43.129861 -24.7
-70.589835 43.129936 -22.6
-70.591277 43.129950 -22.6
-70.586902 43.129956 -24.1
-70.587652 43.129956 -22.3
-70.588649 43.129956 -24.4
-70.588093 43.129967 -22.9
-70.589235 43.129970 -23.5
-70.586257 43.130111 -24.7
-70.585757 43.130145 -25.6
-70.591552 43.130150 -21.9
-70.585302 43.130231 -23.2
-70.584874 43.130242 -24.7
-70.584368 43.130250 -25.6
-70.583843 43.130292 -21.6
-70.583254 43.130295 -22.9
-70.586499 43.130400 -24.4
-70.592243 43.130400 -22.9
-70.585896 43.130408 -25.3
-70.586990 43.130425 -22.9
-70.591785 43.130445 -21.9
-70.585179 43.130453 -25.3
-70.588343 43.130458 -23.5
-70.587746 43.130464 -23.2
-70.590999 43.130467 -22.9
-70.584613 43.130472 -22.3
-70.589052 43.130481 -23.2
-70.590127 43.130489 -22.9
-70.589640 43.130492 -22.3
-70.584146 43.130506 -23.5
-70.583024 43.130522 -22.9
-70.590610 43.130528 -22.6
-70.583646 43.130545 -21.3
-70.592146 43.130703 -23.5
-70.585329 43.130878 -26.5
-70.585877 43.130895 -25.6
-70.584796 43.130897 -23.2
-70.584252 43.130911 -21.6
-70.583710 43.130936 -21.6
-70.583188 43.130945 -22.9
-70.592663 43.131036 -23.2
-70.599432 43.131131 -26.8
-70.592365 43.131142 -23.2
-70.598863 43.131153 -26.2
-70.594971 43.131167 -27.7
-70.591107 43.131178 -22.9
-70.591732 43.131181 -23.8
-70.598193 43.131181 -26.8
-70.586093 43.131186 -24.7
-70.595640 43.131186 -27.7
-70.586707 43.131192 -23.5
-70.594352 43.131192 -27.7
-70.583515 43.131197 -22.6
-70.596902 43.131197 -27.1
-70.587377 43.131200 -21.6
-70.593649 43.131203 -26.5
-70.589799 43.131206 -21.3
-70.584768 43.131208 -25.0
-70.588577 43.131208 -23.2
-70.589163 43.131208 -22.9
-70.596260 43.131208 -27.4
-70.597557 43.131208 -26.8
-70.584102 43.131214 -23.5
-70.590532 43.131222 -20.1
-70.585499 43.131239 -25.3
-70.587957 43.131245 -22.6
-70.593049 43.131445 -23.8
-70.584449 43.131475 -25.0
-70.583974 43.131581 -24.7
-70.583554 43.131603 -22.9
-70.582965 43.131606 -23.5
-70.585779 43.131650 -24.7
-70.585377 43.131681 -24.7
-70.593249 43.131711 -25.6
-70.584863 43.131717 -25.0
-70.599082 43.131792 -25.9
-70.598524 43.131795 -26.2
-70.584418 43.131800 -24.7
-70.583957 43.131831 -23.5
-70.597904 43.131833 -26.2
-70.597227 43.131842 -26.5
-70.583446 43.131858 -24.1
-70.582957 43.131867 -23.5
-70.596652 43.131889 -26.5
-70.595915 43.131897 -25.9
-70.595324 43.131945 -26.8
-70.594724 43.131953 -26.2
-70.594204 43.131981 -24.7
-70.589832 43.131983 -23.2
-70.593702 43.131992 -24.7
-70.589274 43.132006 -23.8
-70.592802 43.132014 -25.6
-70.590949 43.132028 -22.9
-70.591585 43.132031 -22.3
-70.590363 43.132033 -22.9
-70.592190 43.132033 -24.1
-70.586654 43.132036 -21.9
-70.588563 43.132036 -24.1
-70.586165 43.132045 -23.5
-70.588063 43.132047 -23.5
-70.593307 43.132047 -23.8
-70.584949 43.132053 -24.4
-70.585635 43.132058 -24.1
-70.587268 43.132061 -21.0
-70.582849 43.132081 -21.3
-70.582879 43.132081 -21.3
-70.583718 43.132108 -23.2
-70.584329 43.132108 -24.1
-70.594296 43.132295 -25.0
-70.594554 43.132564 -24.7
-70.582977 43.132575 -24.1
-70.584240 43.132597 -24.4
-70.583607 43.132636 -22.9
-70.584929 43.132664 -23.2
-70.586224 43.132672 -21.9
-70.585529 43.132703 -23.2
-70.586877 43.132714 -23.8
-70.588110 43.132714 -24.1
-70.587454 43.132731 -23.8
-70.588729 43.132758 -24.7
-70.589368 43.132772 -23.8
-70.589996 43.132775 -23.5
-70.599065 43.132803 -22.6
-70.590743 43.132808 -21.0
-70.596540 43.132820 -26.2
-70.593113 43.132822 -25.9
-70.591638 43.132825 -22.6
-70.596010 43.132825 -25.6
-70.592427 43.132831 -26.5
-70.593724 43.132836 -25.0
-70.594604 43.132839 -25.9
-70.597904 43.132839 -25.9
-70.598504 43.132839 -25.3
-70.591243 43.132842 -22.9
-70.597174 43.132858 -25.9
-70.595113 43.132956 -25.6
-70.585349 43.133053 -21.0
-70.584702 43.133078 -22.9
-70.583963 43.133092 -22.3
-70.582857 43.133100 -22.9
-70.583432 43.133117 -22.9
-70.595493 43.133378 -26.2
-70.609490 43.116775 -18.9
-70.600063 43.116911 -26.2
-70.600560 43.116911 -25.3
-70.601752 43.116947 -27.1
-70.602990 43.116950 -25.9
-70.601268 43.116958 -23.2
-70.603604 43.116967 -24.1
-70.602346 43.116970 -26.5
-70.604985 43.116970 -17.7
-70.604113 43.116986 -21.9
-70.605940 43.117011 -21.0
-70.605482 43.117020 -20.1
-70.609560 43.117025 -18.0
-70.606602 43.117028 -20.1
-70.607215 43.117033 -24.1
-70.607838 43.117045 -23.5
-70.608482 43.117045 -21.6
-70.610274 43.117056 -15.8
-70.609032 43.117061 -19.2
-70.612577 43.117081 -19.5
-70.611965 43.117095 -19.8
-70.610793 43.117125 -19.2
-70.604585 43.117133 -18.3
-70.611415 43.117200 -20.1
-70.612535 43.117347 -17.7
-70.613477 43.117364 -18.9
-70.614535 43.117364 -24.4
-70.615115 43.117364 -25.9
-70.611946 43.117367 -18.6
-70.615627 43.117370 -25.3
-70.609804 43.117372 -15.2
-70.613974 43.117378 -22.3
-70.608993 43.117381 -18.0
-70.608474 43.117392 -20.7
-70.610557 43.117392 -19.2
-70.608010 43.117420 -21.9
-70.607532 43.117467 -22.9
-70.606977 43.117481 -24.1
-70.605957 43.117486 -20.4
-70.615993 43.117497 -24.4
-70.606454 43.117500 -24.7
-70.605479 43.117511 -22.9
-70.604624 43.117520 -19.5
-70.605060 43.117531 -18.6
-70.600724 43.117533 -26.8
-70.601413 43.117558 -26.5
-70.602265 43.117561 -24.4
-70.600099 43.117567 -26.8
-70.603215 43.117600 -20.7
-70.604007 43.117628 -18.6
-70.611618 43.117647 -16.8
-70.605585 43.117761 -23.5
-70.615529 43.117789 -24.7
-70.607765 43.117908 -22.3
-70.608793 43.117958 -21.0
-70.610129 43.117958 -20.7
-70.608152 43.117970 -22.9
-70.609349 43.117970 -17.4
-70.611740 43.117970 -18.3
-70.612354 43.117970 -15.8
-70.606627 43.117983 -21.6
-70.612882 43.117992 -17.4
-70.610818 43.117995 -19.2
-70.614110 43.117997 -22.9
-70.607410 43.118003 -23.2
-70.613465 43.118008 -20.7
-70.615846 43.118036 -25.3
-70.615382 43.118042 -25.3
-70.606063 43.118083 -22.6
-70.614954 43.118139 -25.0
-70.614329 43.118220 -18.0
-70.613652 43.118256 -14.6
-70.612896 43.118270 -16.2
-70.608110 43.118286 -21.0
-70.616021 43.118286 -25.3
-70.615457 43.118292 -25.6
-70.604035 43.118303 -21.6
-70.611624 43.118306 -16.8
-70.610252 43.118311 -18.9
-70.610946 43.118311 -18.0
-70.606932 43.118314 -20.1
-70.612313 43.118317 -16.5
-70.608685 43.118322 -19.5
-70.602754 43.118325 -25.9
-70.603368 43.118325 -22.9
-70.607468 43.118336 -19.8
-70.604599 43.118339 -20.7
-70.605157 43.118339 -22.6
-70.609757 43.118345 -18.0
-70.609199 43.118364 -21.3
-70.605910 43.118367 -20.7
-70.606449 43.118403 -20.1
-70.614479 43.118450 -21.6
-70.604902 43.118570 -23.5
-70.604265 43.118622 -22.3
-70.603629 43.118625 -24.1
-70.606743 43.118631 -21.3
-70.608863 43.118636 -20.1
-70.611399 43.118639 -16.5
-70.608132 43.118645 -20.4
-70.612196 43.118647 -15.8
-70.612693 43.118658 -15.8
-70.609477 43.118661 -18.9
-70.610727 43.118667 -18.6
-70.602335 43.118670 -25.9
-70.613321 43.118670 -14.3
-70.602960 43.118678 -25.9
-70.601154 43.118683 -19.5
-70.613943 43.118683 -17.1
-70.615246 43.118683 -24.7
-70.615818 43.118683 -24.7
-70.600321 43.118686 -22.9
-70.599704 43.118689 -23.8
-70.601740 43.118695 -20.4
-70.614632 43.118695 -18.9
-70.607590 43.118731 -20.1
-70.608460 43.118872 -19.8
-70.605043 43.118883 -21.3
-70.605871 43.118895 -20.1
-70.606415 43.118895 -20.7
-70.607054 43.118911 -19.8
-70.609818 43.118920 -18.9
-70.609049 43.118945 -20.1
-70.612390 43.118956 -14.3
-70.610413 43.118967 -19.5
-70.611502 43.118967 -14.3
-70.610977 43.118970 -16.5
-70.613227 43.118970 -14.3
-70.613752 43.119086 -17.7
-70.614363 43.119089 -20.4
-70.615110 43.119111 -24.7
-70.615757 43.119128 -24.7
-70.612796 43.119217 -15.2
-70.607582 43.119245 -21.0
-70.600099 43.119361 -20.7
-70.600727 43.119389 -25.3
-70.609913 43.119395 -19.8
-70.615049 43.119408 -24.7
-70.601602 43.119420 -25.3
-70.615677 43.119428 -24.4
-70.614413 43.119433 -22.6
-70.602168 43.119445 -23.2
-70.611810 43.119445 -15.8
-70.612418 43.119447 -15.8
-70.610554 43.119450 -16.8
-70.613757 43.119453 -20.1
-70.602854 43.119467 -25.6
-70.603379 43.119478 -24.4
-70.611027 43.119486 -16.2
-70.613113 43.119486 -16.5
-70.608674 43.119514 -19.8
-70.604282 43.119545 -24.4
-70.604852 43.119578 -21.6
-70.608002 43.119592 -18.6
-70.603904 43.119595 -22.6
-70.607340 43.119606 -22.9
-70.606115 43.119617 -24.7
-70.605463 43.119620 -25.3
-70.606793 43.119622 -24.4
-70.609340 43.119653 -21.0
-70.609954 43.119672 -19.8
-70.610599 43.119700 -15.8
-70.611335 43.119703 -15.8
-70.613874 43.119756 -24.4
-70.611832 43.119758 -15.2
-70.612593 43.119772 -18.6
-70.613238 43.119772 -21.3
-70.614477 43.119792 -25.3
-70.615138 43.119833 -25.0
-70.615732 43.119850 -24.1
-70.608421 43.119870 -20.1
-70.611277 43.119925 -15.8
-70.603388 43.120108 -25.0
-70.599810 43.120111 -25.3
-70.602788 43.120122 -25.3
-70.600999 43.120128 -24.4
-70.608829 43.120131 -21.9
-70.602179 43.120133 -25.6
-70.600435 43.120147 -24.7
-70.601540 43.120158 -21.9
-70.610832 43.120222 -17.1
-70.611474 43.120447 -17.7
-70.612129 43.120461 -21.9
-70.610896 43.120470 -19.8
-70.610254 43.120483 -18.0
-70.609371 43.120495 -19.2
-70.613318 43.120495 -21.6
-70.613971 43.120517 -23.5
-70.612721 43.120520 -19.5
-70.615171 43.120531 -23.5
-70.600852 43.120542 -25.0
-70.599663 43.120545 -25.6
-70.600304 43.120545 -25.6
-70.614585 43.120545 -23.8
-70.607588 43.120550 -23.5
-70.608918 43.120553 -22.9
-70.603318 43.120561 -21.9
-70.602757 43.120564 -20.4
-70.615821 43.120564 -23.2
-70.604532 43.120567 -19.5
-70.602029 43.120572 -20.7
-70.603921 43.120572 -19.8
-70.605196 43.120583 -21.3
-70.606821 43.120583 -21.6
-70.608254 43.120589 -23.2
-70.601493 43.120592 -24.1
-70.606149 43.120608 -19.8
-70.609802 43.120906 -19.2
-70.609199 43.121039 -22.3
-70.610288 43.121164 -21.3
-70.608790 43.121214 -18.6
-70.615771 43.121272 -22.6
-70.615213 43.121297 -23.2
-70.614577 43.121328 -23.2
-70.613963 43.121347 -23.8
-70.613340 43.121358 -23.5
-70.612121 43.121411 -22.3
-70.611040 43.121414 -19.2
-70.612746 43.121417 -23.5
-70.610185 43.121428 -19.5
-70.611529 43.121431 -23.2
-70.609657 43.121456 -17.1
-70.608413 43.121472 -20.1
-70.607674 43.121481 -20.4
-70.608979 43.121481 -18.9
-70.605288 43.121533 -19.5
-70.607238 43.121539 -18.3
-70.606521 43.121542 -21.3
-70.599743 43.121547 -25.0
-70.600429 43.121550 -24.4
-70.605927 43.121558 -19.8
-70.610685 43.121561 -18.0
-70.604515 43.121564 -20.1
-70.602918 43.121572 -23.5
-70.603554 43.121575 -20.7
-70.604032 43.121578 -21.9
-70.601163 43.121589 -21.6
-70.601790 43.121614 -20.1
-70.602496 43.121631 -22.6
-70.608052 43.121706 -19.2
-70.614782 43.121839 -21.3
-70.612890 43.121842 -20.1
-70.614146 43.121850 -21.6
-70.615388 43.121853 -18.6
-70.613429 43.121861 -21.6
-70.607560 43.121906 -19.5
-70.611221 43.121950 -19.5
-70.608482 43.122295 -17.7
-70.612240 43.122300 -20.1
-70.607799 43.122308 -17.4
-70.609077 43.122311 -18.0
-70.610349 43.122320 -16.8
-70.611560 43.122320 -21.6
-70.609688 43.122322 -18.9
-70.610938 43.122328 -19.8
-70.615865 43.122331 -19.8
-70.606588 43.122336 -20.7
-70.607235 43.122336 -17.1
-70.612824 43.122339 -18.9
-70.605799 43.122356 -19.8
-70.615271 43.122356 -16.2
-70.613640 43.122361 -17.7
-70.614293 43.122367 -16.5
-70.614754 43.122370 -18.6
-70.605368 43.122392 -21.9
-70.604771 43.122467 -20.1
-70.604163 43.122472 -20.7
-70.603046 43.122500 -22.6
-70.603538 43.122503 -21.0
-70.602407 43.122517 -24.4
-70.612002 43.122528 -19.2
-70.601610 43.122545 -21.6
-70.601193 43.122558 -21.3
-70.600682 43.122595 -20.4
-70.599985 43.122611 -24.7
-70.606163 43.122650 -18.0
-70.612268 43.122733 -17.1
-70.605799 43.122814 -18.6
-70.614046 43.122920 -17.7
-70.603707 43.122945 -21.9
-70.613377 43.122953 -16.2
-70.604185 43.122956 -22.3
-70.614552 43.122956 -17.4
-70.615213 43.122978 -16.8
-70.612296 43.122983 -15.2
-70.606160 43.122986 -18.0
-70.615796 43.122989 -17.4
-70.604838 43.123003 -22.6
-70.610382 43.123003 -20.7
-70.611579 43.123003 -18.6
-70.609729 43.123014 -18.6
-70.607746 43.123017 -17.4
-70.608724 43.123028 -16.8
-70.611018 43.123031 -20.1
-70.607221 43.123033 -17.4
-70.606699 43.123042 -17.7
-70.609315 43.123042 -20.1
-70.605402 43.123047 -20.4
-70.612788 43.123047 -15.2
-70.608240 43.123058 -18.3
-70.602877 43.123203 -24.1
-70.601979 43.123222 -21.3
-70.601482 43.123225 -23.8
-70.599618 43.123228 -25.6
-70.614490 43.123236 -16.5
-70.600321 43.123239 -24.7
-70.615163 43.123239 -15.5
-70.602429 43.123245 -23.5
-70.600924 43.123253 -20.4
-70.615832 43.123272 -16.5
-70.604796 43.123306 -21.6
-70.612854 43.123328 -15.8
-70.605268 43.123370 -20.4
-70.612149 43.123495 -18.9
-70.610904 43.123520 -20.1
-70.611515 43.123550 -18.3
-70.610274 43.123575 -19.8
-70.604052 43.123581 -20.1
-70.614590 43.123595 -15.2
-70.603463 43.123600 -21.3
-70.608763 43.123603 -17.4
-70.609546 43.123617 -20.1
-70.613335 43.123617 -16.8
-70.613996 43.123622 -13.1
-70.608179 43.123631 -18.0
-70.615679 43.123631 -15.8
-70.615135 43.123633 -17.4
-70.605177 43.123639 -21.3
-70.606332 43.123642 -17.4
-70.605863 43.123675 -17.1
-70.604504 43.123683 -20.7
-70.612649 43.123692 -17.4
-70.607132 43.123708 -18.6
-70.607660 43.123708 -19.2
-70.611977 43.123767 -19.5
-70.611313 43.123833 -18.9
-70.610727 43.123850 -20.7
-70.603813 43.123878 -19.8
-70.610146 43.123881 -20.1
-70.613727 43.123883 -12.8
-70.602510 43.123892 -21.3
-70.603221 43.123900 -21.9
-70.609354 43.123911 -21.9
-70.600607 43.123914 -25.9
-70.599949 43.123925 -26.5
-70.608088 43.123931 -18.9
-70.601854 43.123936 -20.1
-70.601213 43.123942 -25.6
-70.604918 43.123953 -18.9
-70.607463 43.123953 -20.1
-70.605629 43.123956 -20.4
-70.608713 43.123961 -19.2
-70.604204 43.123983 -20.4
-70.606302 43.123992 -19.5
-70.606777 43.123992 -20.1
-70.615882 43.124031 -12.8
-70.615324 43.124045 -13.7
-70.614185 43.124053 -16.8
-70.614732 43.124078 -16.2
-70.603140 43.124167 -22.3
-70.602474 43.124186 -22.9
-70.603793 43.124261 -21.6
-70.604338 43.124342 -19.8
-70.604974 43.124358 -18.3
-70.613979 43.124372 -15.8
-70.615707 43.124372 -14.9
-70.612252 43.124375 -18.6
-70.612782 43.124375 -17.4
-70.614682 43.124375 -17.4
-70.611624 43.124378 -19.8
-70.615163 43.124378 -16.2
-70.606521 43.124392 -16.5
-70.610374 43.124397 -21.0
-70.613446 43.124397 -14.3
-70.607340 43.124406 -17.4
-70.607935 43.124406 -22.3
-70.610988 43.124422 -20.4
-70.602935 43.124431 -21.6
-70.605888 43.124431 -14.9
-70.609496 43.124431 -19.5
-70.608865 43.124453 -21.3
-70.608421 43.124461 -21.6
-70.614821 43.124647 -13.7
-70.602457 43.124681 -22.3
-70.615482 43.124886 -17.1
-70.614796 43.124911 -13.7
-70.601946 43.124920 -24.4
-70.613971 43.124945 -16.8
-70.613493 43.124983 -15.5
-70.612946 43.125025 -14.6
-70.610277 43.125039 -21.3
-70.610965 43.125058 -21.3
-70.611563 43.125072 -20.1
-70.612204 43.125072 -17.4
-70.601432 43.125178 -21.0
-70.606907 43.125195 -17.4
-70.606077 43.125236 -19.2
-70.607607 43.125236 -23.2
-70.608527 43.125242 -20.4
-70.603682 43.125245 -21.6
-70.599963 43.125258 -26.2
-70.613504 43.125258 -17.4
-70.609204 43.125264 -18.6
-70.609763 43.125264 -22.3
-70.615357 43.125264 -11.6
-70.611646 43.125270 -20.1
-70.605240 43.125272 -19.2
-70.614243 43.125272 -15.5
-70.602707 43.125278 -23.2
-70.614807 43.125283 -14.0
-70.610210 43.125286 -21.6
-70.610777 43.125286 -20.1
-70.612882 43.125289 -18.3
-70.604099 43.125303 -19.5
-70.612274 43.125303 -19.8
-70.603252 43.125311 -22.6
-70.607940 43.125322 -21.6
-70.600890 43.125395 -23.5
-70.606590 43.125420 -21.3
-70.615924 43.125447 -11.0
-70.607304 43.125453 -22.6
-70.613802 43.125467 -17.4
-70.615385 43.125472 -11.6
-70.605949 43.125478 -22.3
-70.599732 43.125497 -27.1
-70.613346 43.125503 -17.1
-70.612415 43.125528 -19.5
-70.611815 43.125533 -19.5
-70.600379 43.125561 -25.0
-70.605202 43.125592 -21.0
-70.607282 43.125636 -22.3
-70.604604 43.125645 -21.6
-70.606818 43.125658 -20.7
-70.607813 43.125658 -21.6
-70.608482 43.125686 -19.8
-70.609063 43.125695 -19.8
-70.609713 43.125695 -18.9
-70.615185 43.125695 -11.9
-70.611604 43.125708 -17.7
-70.614138 43.125708 -14.9
-70.610935 43.125720 -19.2
-70.605607 43.125728 -21.0
-70.614652 43.125728 -13.4
-70.603938 43.125731 -22.6
-70.610332 43.125731 -20.4
-70.612171 43.125736 -17.1
-70.615679 43.125745 -12.5
-70.612918 43.125756 -18.6
-70.602821 43.125764 -19.5
-70.602007 43.125767 -24.1
-70.599529 43.125783 -26.8
-70.603349 43.125786 -22.9
-70.613490 43.125789 -16.8
-70.600163 43.125817 -25.3
-70.600754 43.125817 -23.5
-70.601407 43.125817 -22.9
-70.600657 43.126128 -24.7
-70.610413 43.126300 -15.8
-70.610968 43.126308 -17.1
-70.607874 43.126322 -21.3
-70.614496 43.126325 -14.0
-70.611460 43.126328 -16.5
-70.612657 43.126328 -16.8
-70.613152 43.126331 -18.9
-70.608813 43.126345 -18.3
-70.612154 43.126345 -14.3
-70.615121 43.126345 -15.2
-70.615838 43.126345 -14.3
-70.605913 43.126347 -22.9
-70.609460 43.126356 -20.4
-70.607177 43.126358 -22.3
-70.605221 43.126367 -21.9
-70.613779 43.126367 -18.3
-70.604649 43.126370 -22.6
-70.606527 43.126370 -22.9
-70.601138 43.126492 -25.3
-70.615196 43.126539 -15.8
-70.614632 43.126547 -16.8
-70.610546 43.126553 -18.0
-70.611690 43.126558 -15.8
-70.616090 43.126561 -15.2
-70.609915 43.126570 -19.2
-70.612307 43.126570 -14.3
-70.613404 43.126572 -18.9
-70.611193 43.126575 -15.2
-70.612835 43.126583 -17.1
-70.608760 43.126586 -20.7
-70.613885 43.126586 -20.4
-70.609268 43.126617 -19.5
-70.601740 43.126789 -22.9
-70.610543 43.126842 -18.0
-70.601254 43.126861 -22.9
-70.611110 43.126867 -14.9
-70.604785 43.126875 -22.3
-70.608429 43.126875 -21.0
-70.605321 43.126878 -25.0
-70.607865 43.126881 -22.3
-70.608990 43.126886 -19.2
-70.599924 43.126889 -26.5
-70.604132 43.126895 -25.0
-70.606527 43.126900 -22.9
-70.609896 43.126908 -14.0
-70.600565 43.126914 -26.2
-70.605932 43.126914 -24.4
-70.607499 43.126914 -21.9
-70.602221 43.126920 -21.9
-70.611696 43.126920 -16.5
-70.602993 43.126928 -24.1
-70.603624 43.126931 -25.6
-70.612229 43.126953 -19.5
-70.612843 43.126975 -18.0
-70.613452 43.127000 -21.0
-70.614027 43.127020 -20.7
-70.614665 43.127020 -18.6
-70.615329 43.127050 -17.7
-70.616065 43.127064 -14.9
-70.602129 43.127108 -23.2
-70.612463 43.127200 -19.2
-70.611215 43.127217 -15.8
-70.610546 43.127245 -17.4
-70.611940 43.127245 -14.3
-70.613432 43.127253 -18.6
-70.612890 43.127270 -17.4
-70.610090 43.127275 -16.2
-70.614074 43.127278 -20.7
-70.615388 43.127283 -19.2
-70.614846 43.127295 -18.9
-70.609388 43.127300 -19.8
-70.616049 43.127342 -17.1
-70.608765 43.127353 -20.7
-70.602521 43.127486 -25.3
-70.601852 43.127500 -26.5
-70.607127 43.127511 -22.9
-70.599643 43.127536 -24.7
-70.600927 43.127536 -22.6
-70.600357 43.127542 -22.9
-70.608988 43.127545 -19.5
-70.615702 43.127547 -18.6
-70.611646 43.127553 -14.9
-70.613110 43.127597 -16.8
-70.610127 43.127650 -16.8
-70.607699 43.127653 -22.6
-70.610782 43.127661 -14.6
-70.615985 43.127745 -19.2
-70.615027 43.127770 -19.8
-70.608182 43.127775 -22.3
-70.614404 43.127778 -20.1
-70.613768 43.127781 -21.0
-70.609404 43.127786 -17.4
-70.605499 43.127792 -24.7
-70.608771 43.127792 -21.0
-70.611907 43.127792 -18.0
-70.615432 43.127792 -19.8
-70.605010 43.127795 -25.0
-70.606888 43.127806 -23.5
-70.612488 43.127820 -18.3
-70.602940 43.127836 -26.5
-70.609935 43.127895 -16.2
-70.606260 43.127920 -23.8
-70.611329 43.127920 -14.9
-70.607474 43.127939 -23.2
-70.610790 43.127939 -15.5
-70.612896 43.127950 -19.8
-70.613468 43.127989 -21.0
-70.615735 43.128022 -18.9
-70.603460 43.128106 -26.2
-70.615221 43.128195 -19.5
-70.608532 43.128206 -22.3
-70.609104 43.128214 -21.6
-70.607827 43.128239 -19.2
-70.607268 43.128245 -23.2
-70.606652 43.128247 -23.8
-70.609779 43.128267 -19.8
-70.610385 43.128275 -16.8
-70.604696 43.128300 -25.3
-70.605363 43.128308 -25.0
-70.606035 43.128311 -24.4
-70.604163 43.128328 -25.9
-70.615604 43.128331 -18.6
-70.614679 43.128333 -21.3
-70.611024 43.128336 -18.0
-70.600971 43.128383 -27.1
-70.602165 43.128383 -26.8
-70.602871 43.128389 -26.5
-70.603499 43.128389 -26.2
-70.601568 43.128395 -27.1
-70.612885 43.128397 -21.6
-70.611674 43.128400 -19.8
-70.612263 43.128406 -20.4
-70.600329 43.128411 -25.9
-70.613479 43.128422 -21.3
-70.614052 43.128428 -20.7
-70.599713 43.128442 -25.3
-70.615299 43.128592 -19.5
-70.604032 43.128611 -25.9
-70.615754 43.128611 -18.6
-70.614763 43.128617 -19.8
-70.614165 43.128667 -20.1
-70.610754 43.128722 -21.6
-70.604940 43.128756 -25.3
-70.607749 43.128758 -22.9
-70.605524 43.128764 -25.0
-70.607177 43.128767 -22.3
-70.610049 43.128767 -22.6
-70.606546 43.128770 -24.1
-70.609540 43.128772 -20.1
-70.608335 43.128778 -22.6
-70.606015 43.128781 -24.7
-70.608927 43.128781 -21.9
-70.611354 43.128792 -20.4
-70.612038 43.128797 -21.3
-70.612685 43.128847 -21.0
-70.613663 43.128856 -20.4
-70.613177 43.128864 -20.7
-70.604324 43.128878 -25.3
-70.614993 43.128892 -18.9
-70.614407 43.128908 -19.5
-70.615643 43.128939 -16.8
-70.613024 43.129089 -20.4
-70.604727 43.129214 -25.0
-70.599790 43.129225 -26.5
-70.600974 43.129228 -26.5
-70.600377 43.129250 -26.5
-70.608238 43.129258 -23.2
-70.609943 43.129275 -22.3
-70.607588 43.129278 -23.5
-70.606332 43.129281 -23.5
-70.607007 43.129289 -23.2
-70.608793 43.129289 -22.9
-70.605704 43.129295 -24.1
-70.609360 43.129295 -22.9
-70.610540 43.129300 -21.9
-70.614357 43.129345 -19.8
-70.615146 43.129345 -17.7
-70.612532 43.129350 -20.7
-70.613782 43.129361 -19.8
-70.615865 43.129383 -13.4
-70.600785 43.129450 -27.1
-70.601999 43.129450 -26.8
-70.602752 43.129450 -26.2
-70.604046 43.129453 -25.3
-70.601385 43.129458 -26.8
-70.603357 43.129458 -25.9
-70.604688 43.129461 -25.0
-70.600146 43.129522 -27.4
-70.605215 43.129525 -24.7
-70.607293 43.129539 -23.2
-70.607935 43.129545 -21.9
-70.611924 43.129545 -21.0
-70.606663 43.129547 -23.8
-70.605990 43.129553 -24.1
-70.609235 43.129600 -22.9
-70.608577 43.129611 -22.6
-70.609863 43.129614 -23.2
-70.610999 43.129628 -21.3
-70.610427 43.129650 -21.9
-70.612468 43.129672 -20.4
-70.613882 43.129692 -19.8
-70.613193 43.129706 -20.4
-70.614538 43.129728 -18.9
-70.615885 43.129728 -14.9
-70.615152 43.129731 -14.3
-70.611457 43.129797 -21.3
-70.609890 43.129878 -23.2
-70.609202 43.129886 -20.4
-70.610343 43.129886 -22.9
-70.604774 43.129911 -24.7
-70.608535 43.129914 -19.5
-70.606024 43.129928 -24.4
-70.606579 43.129928 -23.5
-70.607296 43.129936 -23.2
-70.604110 43.129945 -24.7
-70.607982 43.129945 -22.6
-70.610890 43.129950 -22.3
-70.605288 43.129958 -24.4
-70.603496 43.129970 -25.9
-70.602810 43.130008 -25.9
-70.615046 43.130045 -16.2
-70.613107 43.130058 -20.1
-70.615668 43.130058 -14.9
-70.614121 43.130064 -19.5
-70.611940 43.130081 -21.3
-70.611388 43.130083 -21.9
-70.612582 43.130106 -20.4
-70.614693 43.130114 -18.6
-70.609818 43.130142 -22.3
-70.609485 43.130175 -21.3
-70.613585 43.130175 -20.1
-70.606140 43.130217 -21.9
-70.610379 43.130231 -22.6
-70.608315 43.130245 -18.9
-70.607638 43.130264 -19.8
-70.607024 43.130278 -23.5
-70.611568 43.130300 -21.6
-70.614365 43.130320 -19.2
-70.610821 43.130322 -22.6
-70.605574 43.130333 -24.4
-70.612888 43.130333 -20.4
-70.612204 43.130339 -21.0
-70.615221 43.130350 -16.8
-70.608004 43.130364 -21.6
-70.615788 43.130370 -18.0
-70.604560 43.130378 -24.4
-70.608840 43.130397 -19.5
-70.604004 43.130400 -25.0
-70.605068 43.130420 -24.4
-70.602810 43.130436 -25.9
-70.603413 43.130442 -25.3
-70.613463 43.130461 -20.4
-70.606479 43.130547 -19.5
-70.609832 43.130547 -23.2
-70.609260 43.130806 -21.0
-70.616129 43.130825 -17.7
-70.615015 43.130842 -18.9
-70.614424 43.130845 -19.2
-70.615627 43.130845 -18.3
-70.613815 43.130850 -19.5
-70.611382 43.130853 -21.6
-70.613096 43.130856 -20.4
-70.610760 43.130858 -22.3
-70.610157 43.130864 -22.9
-70.611977 43.130864 -21.0
-70.612532 43.130870 -20.4
-70.608946 43.130872 -22.3
-70.606985 43.130914 -19.5
-70.606529 43.131075 -21.9
-70.605899 43.131086 -23.8
-70.603868 43.131092 -25.0
-70.605235 43.131106 -24.4
-70.604577 43.131111 -24.4
-70.607988 43.131114 -21.0
-70.602657 43.131120 -25.9
-70.603296 43.131120 -25.3
-70.602021 43.131125 -26.5
-70.601415 43.131131 -27.1
-70.608440 43.131136 -22.9
-70.600085 43.131142 -27.1
-70.600821 43.131147 -27.4
-70.609182 43.131156 -22.3
-70.610379 43.131167 -21.9
-70.611082 43.131181 -21.9
-70.609763 43.131195 -20.4
-70.607502 43.131211 -16.5
-70.612265 43.131220 -20.4
-70.611704 43.131222 -21.0
-70.612879 43.131242 -20.4
-70.613596 43.131281 -19.5
-70.614288 43.131306 -18.9
-70.615479 43.131311 -17.7
-70.614929 43.131358 -18.6
-70.607918 43.131450 -17.7
-70.608343 43.131556 -20.4
-70.604727 43.131583 -24.1
-70.605646 43.131589 -22.9
-70.612593 43.131592 -20.4
-70.604060 43.131608 -24.4
-70.606454 43.131608 -20.7
-70.606949 43.131608 -19.2
-70.603499 43.131617 -24.7
-70.610202 43.131631 -21.9
-70.602865 43.131636 -25.3
-70.609007 43.131642 -22.9
-70.602279 43.131650 -25.6
-70.609618 43.131650 -22.6
-70.601690 43.131661 -26.5
-70.600979 43.131675 -23.5
-70.610771 43.131675 -21.3
-70.611368 43.131697 -21.0
-70.600407 43.131708 -24.1
-70.607840 43.131708 -18.9
-70.612043 43.131722 -20.4
-70.599679 43.131764 -25.6
-70.613207 43.131786 -19.2
-70.607238 43.131797 -20.4
-70.613746 43.131817 -18.6
-70.615135 43.131820 -17.7
-70.615774 43.131822 -17.1
-70.614499 43.131828 -18.6
-70.608390 43.131833 -21.6
-70.612218 43.131992 -20.7
-70.605785 43.132022 -19.8
-70.605265 43.132025 -21.6
-70.606796 43.132025 -20.1
-70.608868 43.132039 -22.9
-70.607652 43.132061 -22.6
-70.608218 43.132097 -22.6
-70.609410 43.132147 -22.6
-70.610007 43.132178 -22.3
-70.615832 43.132200 -16.5
-70.615257 43.132203 -17.7
-70.610643 43.132208 -21.6
-70.606299 43.132211 -22.3
-70.611240 43.132225 -21.0
-70.614121 43.132239 -19.2
-70.614724 43.132258 -18.3
-70.613543 43.132272 -19.8
-70.612632 43.132295 -19.5
-70.608838 43.132320 -22.6
-70.611985 43.132331 -20.7
-70.605879 43.132389 -20.7
-70.605493 43.132489 -21.6
-70.615535 43.132533 -15.8
-70.614146 43.132545 -18.6
-70.613540 43.132586 -19.5
-70.616010 43.132586 -16.5
-70.614849 43.132595 -18.3
-70.612068 43.132600 -19.2
-70.612971 43.132600 -20.4
-70.612540 43.132642 -18.9
-70.611527 43.132650 -19.5
-70.609335 43.132670 -21.9
-70.605107 43.132722 -24.4
-70.603032 43.132758 -25.0
-70.602365 43.132761 -25.3
-70.601674 43.132767 -25.9
-70.603721 43.132767 -24.7
-70.604640 43.132772 -21.9
-70.607568 43.132786 -23.2
-70.601035 43.132800 -26.5
-70.606838 43.132808 -23.8
-70.608721 43.132817 -22.9
-70.599757 43.132822 -27.4
-70.600382 43.132822 -26.8
-70.608121 43.132825 -22.6
-70.610590 43.132831 -21.9
-70.606310 43.132836 -20.7
-70.611479 43.132836 -18.9
-70.614274 43.132847 -18.6
-70.605557 43.132850 -24.7
-70.609993 43.132858 -19.5
-70.612090 43.132861 -19.8
-70.613693 43.132864 -19.2
-70.614960 43.132872 -18.0
-70.616027 43.132883 -16.5
-70.612871 43.132886 -18.9
-70.615524 43.132897 -15.5
-70.604543 43.133053 -21.0
-70.609665 43.133083 -18.3
-70.614235 43.133114 -18.9
-70.610804 43.133133 -18.9
-70.610290 43.133139 -22.3
-70.612882 43.133147 -20.1
-70.613629 43.133153 -19.5
-70.609015 43.133156 -20.1
-70.612177 43.133156 -20.7
-70.614918 43.133156 -17.7
-70.616160 43.133167 -15.8
-70.611399 43.133172 -20.1
-70.615463 43.133178 -15.2
-70.604060 43.133195 -23.5
-70.628054 43.116756 -16.5
-70.630002 43.116756 -14.3
-70.619410 43.116764 -18.0
-70.618443 43.116767 -22.6
-70.626640 43.116767 -18.6
-70.628921 43.116767 -15.2
-70.631429 43.116775 -8.2
-70.631924 43.116775 -9.1
-70.629454 43.116778 -15.8
-70.630693 43.116789 -13.7
-70.622624 43.116800 -16.5
-70.626038 43.116803 -18.9
-70.624907 43.116811 -19.5
-70.625443 43.116811 -19.2
-70.627290 43.116811 -18.0
-70.632490 43.116814 -6.7
-70.620235 43.116817 -19.5
-70.622102 43.116822 -16.8
-70.623165 43.116822 -15.5
-70.624352 43.116822 -16.8
-70.621018 43.116836 -14.9
-70.617140 43.116858 -23.8
-70.623752 43.116936 -15.5
-70.626324 43.116992 -18.0
-70.617857 43.117011 -21.9
-70.618618 43.117014 -18.6
-70.620171 43.117020 -19.5
-70.622488 43.117020 -17.1
-70.619327 43.117025 -17.7
-70.624352 43.117031 -15.8
-70.621735 43.117050 -15.8
-70.623110 43.117053 -14.0
-70.617315 43.117072 -23.5
-70.627657 43.117081 -16.2
-70.621074 43.117083 -17.4
-70.629802 43.117111 -13.1
-70.616577 43.117125 -24.4
-70.630565 43.117142 -13.7
-70.632032 43.117150 -10.7
-70.632532 43.117150 -9.4
-70.629146 43.117197 -13.4
-70.631438 43.117206 -12.5
-70.625607 43.117211 -18.0
-70.628224 43.117214 -13.4
-70.630927 43.117231 -13.1
-70.627213 43.117236 -16.2
-70.626102 43.117242 -18.9
-70.630143 43.117242 -14.3
-70.625090 43.117253 -17.7
-70.626688 43.117258 -18.3
-70.624532 43.117270 -16.5
-70.629546 43.117270 -12.5
-70.624040 43.117283 -16.2
-70.628624 43.117297 -12.8
-70.623454 43.117303 -17.4
-70.622377 43.117320 -18.6
-70.618621 43.117328 -19.2
-70.622868 43.117328 -16.8
-70.618132 43.117347 -20.4
-70.617071 43.117350 -24.4
-70.621746 43.117353 -16.8
-70.620665 43.117358 -20.1
-70.619238 43.117361 -21.9
-70.621204 43.117361 -18.3
-70.620107 43.117367 -19.8
-70.616377 43.117370 -25.0
-70.617629 43.117375 -23.8
-70.625968 43.117597 -14.6
-70.625277 43.117600 -15.8
-70.624804 43.117608 -14.0
-70.626604 43.117608 -16.5
-70.629210 43.117620 -13.7
-70.622699 43.117622 -18.9
-70.624052 43.117625 -16.5
-70.629829 43.117633 -12.5
-70.628538 43.117636 -14.9
-70.631796 43.117642 -8.8
-70.627288 43.117647 -14.6
-70.627768 43.117647 -13.1
-70.632479 43.117656 -7.3
-70.630535 43.117667 -11.3
-70.623338 43.117678 -18.6
-70.631210 43.117683 -9.1
-70.617232 43.117850 -23.5
-70.617849 43.117883 -22.9
-70.624243 43.117897 -15.2
-70.632460 43.117897 -4.6
-70.618429 43.117903 -22.3
-70.624865 43.117914 -16.8
-70.619010 43.117922 -21.6
-70.619568 43.117925 -21.0
-70.622510 43.117931 -20.1
-70.627593 43.117933 -14.9
-70.620149 43.117936 -19.8
-70.627088 43.117936 -13.4
-70.632035 43.117942 -3.4
-70.621177 43.117947 -19.8
-70.620665 43.117950 -20.4
-70.621771 43.117950 -19.5
-70.631168 43.117950 -7.3
-70.623052 43.117958 -16.5
-70.616521 43.117967 -25.0
-70.631593 43.117970 -5.2
-70.630118 43.118000 -10.7
-70.628577 43.118014 -13.1
-70.629532 43.118014 -12.2
-70.630638 43.118025 -10.1
-70.626582 43.118033 -14.3
-70.628052 43.118039 -14.3
-70.625507 43.118061 -15.8
-70.632763 43.118061 -2.7
-70.626060 43.118070 -16.2
-70.623690 43.118114 -15.5
-70.624835 43.118136 -17.7
-70.624088 43.118172 -15.5
-70.622388 43.118200 -17.1
-70.622913 43.118203 -16.5
-70.621679 43.118222 -18.9
-70.620493 43.118233 -21.3
-70.621115 43.118247 -20.7
-70.616657 43.118289 -24.4
-70.619885 43.118289 -21.6
-70.617227 43.118311 -24.4
-70.626538 43.118311 -15.2
-70.619182 43.118331 -22.6
-70.617846 43.118353 -23.5
-70.618493 43.118356 -23.2
-70.627890 43.118361 -13.7
-70.632118 43.118364 -2.7
-70.629863 43.118375 -9.1
-70.628390 43.118381 -11.3
-70.629285 43.118381 -10.4
-70.631263 43.118389 -5.2
-70.630704 43.118406 -7.0
-70.622738 43.118417 -16.5
-70.623999 43.118425 -14.6
-70.631740 43.118436 -3.4
-70.616538 43.118586 -24.4
-70.624338 43.118600 -18.3
-70.627796 43.118603 -13.4
-70.618404 43.118625 -22.9
-70.618993 43.118625 -21.9
-70.617857 43.118653 -23.2
-70.619574 43.118653 -21.3
-70.617099 43.118658 -23.5
-70.629129 43.118670 -8.2
-70.623702 43.118697 -18.3
-70.622815 43.118703 -17.4
-70.630990 43.118703 -6.4
-70.632779 43.118714 -1.8
-70.625474 43.118742 -16.8
-70.626054 43.118742 -14.9
-70.624829 43.118747 -17.4
-70.632221 43.118750 -2.7
-70.626871 43.118767 -14.9
-70.627560 43.118781 -14.0
-70.631368 43.118786 -4.3
-70.629649 43.118789 -9.1
-70.630104 43.118795 -9.8
-70.630621 43.118806 -6.7
-70.628210 43.118811 -11.6
-70.628674 43.118811 -9.1
-70.631871 43.118817 -2.1
-70.624907 43.118995 -17.7
-70.626860 43.119017 -14.0
-70.627521 43.119025 -13.1
-70.619652 43.119033 -21.6
-70.628074 43.119061 -12.2
-70.620321 43.119064 -21.0
-70.619004 43.119078 -21.9
-70.622277 43.119083 -19.8
-70.631457 43.119083 -2.7
-70.629052 43.119086 -9.8
-70.631007 43.119089 -4.0
-70.630510 43.119100 -6.7
-70.629579 43.119103 -9.8
-70.618393 43.119106 -22.6
-70.616382 43.119108 -24.4
-70.621024 43.119125 -20.4
-70.621682 43.119125 -19.8
-70.617090 43.119128 -23.8
-70.617718 43.119150 -23.2
-70.631910 43.119150 -4.0
-70.624463 43.119186 -17.4
-70.623127 43.119192 -18.6
-70.623796 43.119195 -18.0
-70.625518 43.119208 -15.5
-70.625235 43.119253 -16.5
-70.626568 43.119253 -13.4
-70.627740 43.119267 -10.7
-70.627127 43.119270 -12.8
-70.625952 43.119286 -15.2
-70.628163 43.119325 -10.7
-70.628696 43.119356 -11.6
-70.630632 43.119361 -4.9
-70.621510 43.119367 -20.4
-70.629421 43.119372 -9.8
-70.620227 43.119375 -21.3
-70.631104 43.119375 -3.4
-70.624013 43.119386 -18.3
-70.631385 43.119389 -1.2
-70.622827 43.119392 -19.5
-70.623435 43.119400 -18.9
-70.620904 43.119406 -20.7
-70.619588 43.119408 -21.9
-70.617627 43.119433 -22.9
-70.618885 43.119439 -22.3
-70.616965 43.119442 -23.8
-70.618324 43.119445 -22.6
-70.616307 43.119447 -23.8
-70.622104 43.119520 -20.1
-70.629649 43.119625 -13.4
-70.628174 43.119631 -14.0
-70.628632 43.119636 -12.5
-70.626710 43.119653 -16.2
-70.627207 43.119653 -13.1
-70.629132 43.119658 -13.7
-70.630771 43.119661 -4.6
-70.630196 43.119664 -9.8
-70.627652 43.119675 -11.3
-70.625613 43.119678 -16.5
-70.626135 43.119678 -16.8
-70.624838 43.119686 -18.0
-70.624160 43.119758 -18.6
-70.623529 43.119783 -19.2
-70.622893 43.119828 -20.4
-70.632438 43.119831 -0.9
-70.617049 43.119867 -22.9
-70.616429 43.119881 -23.8
-70.622232 43.119892 -20.7
-70.617677 43.119920 -21.3
-70.619613 43.119920 -21.9
-70.621643 43.119922 -20.7
-70.618068 43.119928 -19.5
-70.619027 43.119931 -22.6
-70.620252 43.119950 -21.9
-70.620915 43.119953 -20.7
-70.626154 43.120095 -16.2
-70.628515 43.120103 -14.3
-70.627429 43.120125 -14.9
-70.629132 43.120125 -13.4
-70.629649 43.120133 -12.8
-70.628015 43.120139 -14.6
-70.630204 43.120145 -11.3
-70.626882 43.120156 -15.5
-70.630888 43.120178 -11.0
-70.631371 43.120178 -6.4
-70.621379 43.120333 -21.3
-70.630429 43.120381 -10.4
-70.629874 43.120411 -12.8
-70.630938 43.120420 -8.2
-70.631504 43.120445 -7.3
-70.628785 43.120453 -13.7
-70.629313 43.120464 -13.1
-70.627602 43.120492 -14.6
-70.632502 43.120495 -3.4
-70.628188 43.120497 -14.6
-70.632004 43.120500 -4.6
-70.627043 43.120511 -15.5
-70.626488 43.120514 -15.2
-70.625243 43.120550 -17.4
-70.625899 43.120550 -16.8
-70.623077 43.120583 -19.5
-70.623943 43.120583 -18.6
-70.616502 43.120592 -22.6
-70.622068 43.120592 -21.0
-70.617152 43.120600 -21.9
-70.617852 43.120611 -18.6
-70.624596 43.120620 -18.3
-70.622602 43.120622 -20.4
-70.621543 43.120631 -21.3
-70.630482 43.120639 -10.7
-70.618660 43.120653 -18.3
-70.619157 43.120664 -17.7
-70.619704 43.120664 -20.7
-70.620249 43.120681 -21.9
-70.627599 43.120714 -15.2
-70.628179 43.120758 -14.9
-70.629954 43.120792 -12.8
-70.620849 43.120839 -20.4
-70.626982 43.120853 -15.2
-70.628063 43.121003 -14.6
-70.628565 43.121014 -14.0
-70.629182 43.121017 -13.1
-70.629582 43.121020 -12.5
-70.630102 43.121067 -12.8
-70.630652 43.121092 -12.2
-70.626818 43.121108 -16.2
-70.625752 43.121145 -17.7
-70.619646 43.121147 -19.8
-70.620999 43.121147 -21.3
-70.621488 43.121150 -19.5
-70.626310 43.121150 -16.8
-70.627379 43.121153 -14.6
-70.623763 43.121156 -19.5
-70.624496 43.121156 -18.9
-70.622404 43.121161 -19.2
-70.631671 43.121167 -7.0
-70.619024 43.121170 -21.3
-70.623074 43.121172 -20.4
-70.625154 43.121175 -18.3
-70.631177 43.121175 -9.8
-70.618329 43.121197 -18.3
-70.617668 43.121206 -20.4
-70.620471 43.121222 -20.7
-70.632188 43.121225 -4.0
-70.616404 43.121228 -19.8
-70.632607 43.121228 -1.8
-70.628671 43.121233 -12.8
-70.617060 43.121236 -21.6
-70.628038 43.121275 -13.1
-70.629235 43.121308 -11.0
-70.630010 43.121395 -12.2
-70.630424 43.121464 -11.9
-70.628932 43.121508 -8.5
-70.626068 43.121511 -15.2
-70.629529 43.121525 -7.9
-70.628404 43.121545 -10.7
-70.626718 43.121611 -13.1
-70.624999 43.121617 -17.4
-70.630943 43.121620 -11.6
-70.627629 43.121628 -11.0
-70.620246 43.121633 -21.0
-70.630013 43.121703 -8.8
-70.621479 43.121708 -18.9
-70.622877 43.121725 -19.5
-70.620835 43.121742 -19.8
-70.622196 43.121745 -19.8
-70.623863 43.121745 -16.8
-70.618107 43.121750 -16.8
-70.619421 43.121756 -21.3
-70.617510 43.121761 -17.4
-70.618802 43.121761 -21.3
-70.624424 43.121767 -17.4
-70.630365 43.121775 -9.4
-70.629302 43.121781 -5.8
-70.616207 43.121808 -14.6
-70.625629 43.121808 -16.8
-70.617040 43.121817 -18.3
-70.626463 43.121820 -15.2
-70.627043 43.121845 -13.1
-70.627568 43.121892 -8.2
-70.628088 43.121892 -7.0
-70.630824 43.121895 -11.0
-70.628924 43.121939 -4.0
-70.629599 43.121995 -8.2
-70.632502 43.122064 -7.3
-70.628521 43.122086 -3.4
-70.631957 43.122100 -8.8
-70.624507 43.122111 -14.6
-70.626727 43.122114 -13.7
-70.630327 43.122122 -10.7
-70.630815 43.122122 -10.7
-70.631399 43.122125 -9.4
-70.626104 43.122133 -17.1
-70.619838 43.122153 -17.4
-70.627896 43.122153 -7.0
-70.620729 43.122156 -18.0
-70.625510 43.122164 -17.1
-70.624140 43.122167 -14.9
-70.624943 43.122172 -17.4
-70.627321 43.122178 -7.3
-70.619057 43.122220 -21.3
-70.621654 43.122253 -15.8
-70.618588 43.122286 -17.4
-70.629346 43.122292 -6.7
-70.617649 43.122295 -13.7
-70.623479 43.122295 -15.2
-70.617060 43.122297 -15.2
-70.622660 43.122303 -15.8
-70.616504 43.122331 -18.3
-70.625835 43.122342 -16.2
-70.620365 43.122350 -16.2
-70.619424 43.122358 -20.4
-70.628232 43.122364 -7.9
-70.622054 43.122367 -18.6
-70.621102 43.122370 -16.2
-70.624540 43.122378 -14.6
-70.629796 43.122383 -11.6
-70.625210 43.122389 -16.8
-70.618207 43.122433 -19.5
-70.630874 43.122433 -10.4
-70.626707 43.122450 -9.4
-70.628852 43.122453 -7.9
-70.624013 43.122456 -14.0
-70.630252 43.122475 -11.3
-70.631432 43.122478 -9.4
-70.617613 43.122514 -14.3
-70.623265 43.122514 -15.2
-70.627199 43.122525 -9.4
-70.625590 43.122531 -16.2
-70.626154 43.122542 -14.9
-70.617054 43.122545 -15.5
-70.621643 43.122558 -15.8
-70.622485 43.122567 -18.0
-70.620774 43.122575 -17.7
-70.627707 43.122597 -9.1
-70.624932 43.122606 -17.1
-70.629468 43.122606 -11.0
-70.620185 43.122611 -15.5
-70.621227 43.122628 -16.2
-70.619749 43.122633 -20.1
-70.624390 43.122647 -17.4
-70.629904 43.122697 -11.3
-70.618665 43.122714 -17.4
-70.625379 43.122720 -17.1
-70.618140 43.122731 -19.2
-70.619257 43.122731 -20.7
-70.617582 43.122742 -14.6
-70.626629 43.122745 -15.5
-70.628960 43.122747 -11.9
-70.624902 43.122789 -17.4
-70.623679 43.122831 -18.0
-70.624182 43.122853 -17.4
-70.616838 43.122867 -15.2
-70.623221 43.122895 -16.2
-70.622782 43.122900 -17.4
-70.626096 43.122900 -15.5
-70.617327 43.122939 -14.6
-70.622371 43.122942 -16.2
-70.625643 43.122956 -15.8
-70.627874 43.122958 -12.8
-70.621760 43.122970 -18.6
-70.618129 43.122972 -17.4
-70.627346 43.122981 -13.7
-70.628485 43.122983 -11.9
-70.616374 43.122992 -14.3
-70.620413 43.122997 -18.0
-70.618765 43.123003 -18.3
-70.619427 43.123003 -16.8
-70.620927 43.123011 -16.8
-70.628988 43.123028 -11.3
-70.630318 43.123075 -10.4
-70.623827 43.123092 -17.4
-70.624407 43.123100 -16.8
-70.629627 43.123100 -10.7
-70.631549 43.123106 -8.8
-70.626821 43.123108 -14.0
-70.632721 43.123114 -7.3
-70.630907 43.123117 -9.4
-70.632107 43.123120 -8.2
-70.626299 43.123125 -15.2
-70.623071 43.123128 -17.4
-70.620002 43.123133 -17.1
-70.622393 43.123142 -15.2
-70.621415 43.123150 -15.2
-70.625182 43.123172 -16.2
-70.617696 43.123197 -17.1
-70.619521 43.123222 -16.8
-70.618432 43.123231 -14.3
-70.616763 43.123250 -13.7
-70.630124 43.123270 -9.8
-70.618993 43.123320 -16.8
-70.626988 43.123331 -14.0
-70.625677 43.123333 -15.8
-70.628185 43.123342 -11.6
-70.627577 43.123356 -12.5
-70.626304 43.123358 -13.7
-70.623474 43.123361 -17.4
-70.624113 43.123370 -16.8
-70.628846 43.123370 -11.0
-70.622379 43.123381 -17.7
-70.624663 43.123431 -16.5
-70.621524 43.123439 -14.3
-70.620838 43.123495 -16.2
-70.621913 43.123545 -14.6
-70.618990 43.123547 -17.4
-70.619740 43.123547 -14.3
-70.630574 43.123550 -9.1
-70.620324 43.123553 -17.7
-70.616440 43.123561 -13.4
-70.618354 43.123561 -14.6
-70.617749 43.123564 -16.2
-70.622802 43.123578 -17.1
-70.617188 43.123595 -18.3
-70.628499 43.123595 -11.6
-70.626577 43.123617 -14.3
-70.629638 43.123675 -10.4
-70.627343 43.123689 -12.5
-70.630190 43.123703 -10.1
-70.631374 43.123708 -8.8
-70.626032 43.123720 -13.4
-70.629135 43.123725 -10.1
-70.627952 43.123733 -11.6
-70.623590 43.123739 -17.1
-70.625377 43.123742 -12.2
-70.632413 43.123747 -5.5
-70.631952 43.123750 -7.9
-70.624532 43.123786 -13.7
-70.618621 43.123795 -17.4
-70.630871 43.123895 -8.5
-70.622846 43.123995 -18.0
-70.623685 43.124008 -16.8
-70.622243 43.124036 -14.9
-70.621729 43.124056 -13.7
-70.617074 43.124058 -15.2
-70.616577 43.124061 -14.3
-70.621027 43.124086 -16.2
-70.618204 43.124097 -15.2
-70.617657 43.124100 -14.3
-70.619113 43.124103 -16.2
-70.620318 43.124128 -16.2
-70.619782 43.124136 -18.3
-70.618735 43.124139 -17.4
-70.631302 43.124175 -7.9
-70.627468 43.124208 -12.2
-70.628046 43.124214 -11.9
-70.626865 43.124217 -13.1
-70.628629 43.124222 -10.7
-70.624227 43.124242 -16.5
-70.629643 43.124242 -9.8
-70.624874 43.124250 -15.2
-70.629107 43.124256 -10.4
-70.623582 43.124264 -17.4
-70.625577 43.124264 -11.6
-70.626193 43.124267 -14.3
-70.630702 43.124270 -8.8
-70.623124 43.124289 -17.1
-70.631732 43.124303 -6.7
-70.630140 43.124306 -9.4
-70.632143 43.124328 -1.8
-70.622035 43.124345 -13.4
-70.620852 43.124370 -16.2
-70.617743 43.124372 -14.9
-70.618296 43.124372 -18.3
-70.617271 43.124375 -14.3
-70.621410 43.124378 -14.3
-70.616810 43.124386 -15.8
-70.616260 43.124392 -15.5
-70.618943 43.124400 -17.4
-70.619715 43.124400 -18.6
-70.620238 43.124420 -17.4
-70.624121 43.124642 -17.1
-70.618085 43.124650 -18.9
-70.626568 43.124658 -12.8
-70.621704 43.124667 -13.4
-70.625613 43.124672 -14.0
-70.623082 43.124675 -14.9
-70.622493 43.124678 -13.1
-70.623640 43.124678 -14.9
-70.625188 43.124689 -14.9
-70.627185 43.124697 -11.9
-70.627860 43.124700 -11.3
-70.629193 43.124711 -9.8
-70.621221 43.124720 -14.3
-70.628579 43.124720 -10.4
-70.620618 43.124725 -15.8
-70.620099 43.124733 -17.4
-70.619440 43.124747 -16.5
-70.624540 43.124753 -14.6
-70.618810 43.124770 -18.6
-70.617513 43.124783 -15.5
-70.617090 43.124817 -14.6
-70.616188 43.124881 -14.9
-70.622090 43.124883 -13.1
-70.623946 43.124961 -17.1
-70.617893 43.124978 -19.2
-70.626888 43.124978 -11.9
-70.623302 43.124981 -14.6
-70.622690 43.124995 -17.4
-70.625782 43.125011 -14.3
-70.632110 43.125014 -1.8
-70.628127 43.125017 -10.7
-70.628754 43.125020 -9.8
-70.629321 43.125020 -9.1
-70.624807 43.125025 -14.6
-70.630574 43.125025 -8.2
-70.631399 43.125028 -5.5
-70.629974 43.125031 -8.8
-70.631802 43.125047 -2.7
-70.621268 43.125053 -12.5
-70.627582 43.125061 -11.0
-70.620757 43.125072 -14.9
-70.625318 43.125078 -13.4
-70.620196 43.125095 -15.8
-70.626318 43.125100 -12.5
-70.619713 43.125120 -16.2
-70.621721 43.125145 -17.4
-70.619110 43.125172 -16.8
-70.624452 43.125172 -14.0
-70.631065 43.125197 -4.3
-70.617427 43.125206 -18.6
-70.623263 43.125214 -14.9
-70.617907 43.125222 -18.9
-70.623860 43.125231 -16.5
-70.616365 43.125264 -13.1
-70.622657 43.125264 -16.8
-70.631810 43.125281 -1.8
-70.629402 43.125289 -9.1
-70.628290 43.125292 -10.1
-70.616954 43.125295 -14.9
-70.628815 43.125295 -9.8
-70.625243 43.125300 -13.4
-70.619468 43.125303 -14.9
-70.627277 43.125317 -11.0
-70.627829 43.125317 -10.7
-70.626704 43.125325 -11.9
-70.629940 43.125325 -8.5
-70.618385 43.125333 -17.1
-70.631649 43.125333 -2.1
-70.620204 43.125336 -14.6
-70.630502 43.125339 -8.2
-70.621138 43.125342 -14.0
-70.626088 43.125347 -12.5
-70.631188 43.125383 -2.4
-70.622221 43.125389 -17.1
-70.624840 43.125428 -12.8
-70.629293 43.125483 -8.8
-70.617282 43.125489 -14.9
-70.628749 43.125514 -9.4
-70.619377 43.125528 -12.2
-70.631454 43.125536 -3.0
-70.624385 43.125539 -14.0
-70.626282 43.125539 -12.5
-70.618224 43.125542 -16.5
-70.616815 43.125547 -14.0
-70.623354 43.125547 -14.0
-70.628102 43.125547 -9.8
-70.630785 43.125561 -7.6
-70.630207 43.125564 -7.9
-70.631921 43.125567 -4.3
-70.627518 43.125570 -10.7
-70.625624 43.125572 -13.1
-70.623852 43.125575 -15.2
-70.622571 43.125586 -16.8
-70.626827 43.125589 -11.3
-70.621968 43.125592 -17.1
-70.625971 43.125606 -12.5
-70.620707 43.125622 -13.4
-70.621340 43.125639 -18.3
-70.619854 43.125700 -14.3
-70.618690 43.125714 -13.7
-70.616393 43.125717 -13.7
-70.617493 43.125736 -16.5
-70.618049 43.125742 -16.2
-70.622263 43.125867 -16.5
-70.619440 43.125886 -13.7
-70.620513 43.125889 -14.3
-70.621299 43.125897 -17.7
-70.631302 43.125903 -5.5
-70.631838 43.125906 -4.3
-70.630229 43.125914 -7.9
-70.630804 43.125920 -7.6
-70.619988 43.125928 -14.6
-70.629640 43.125958 -8.2
-70.629132 43.125978 -8.5
-70.618554 43.125983 -13.1
-70.616515 43.125986 -14.9
-70.617907 43.125986 -15.8
-70.617138 43.126028 -14.9
-70.627307 43.126028 -10.4
-70.627979 43.126028 -9.8
-70.625229 43.126036 -12.2
-70.623890 43.126042 -12.5
-70.626624 43.126045 -10.7
-70.625818 43.126047 -10.7
-70.628585 43.126053 -8.8
-70.624421 43.126067 -11.9
-70.623240 43.126111 -14.6
-70.622574 43.126167 -16.2
-70.619460 43.126197 -14.6
-70.621260 43.126203 -17.4
-70.620560 43.126208 -18.3
-70.620015 43.126222 -15.2
-70.617860 43.126245 -15.8
-70.618382 43.126258 -12.5
-70.616585 43.126261 -16.2
-70.617074 43.126306 -16.8
-70.621699 43.126314 -16.5
-70.622196 43.126331 -16.2
-70.629140 43.126414 -8.5
-70.628443 43.126420 -8.8
-70.620904 43.126422 -17.4
-70.619013 43.126431 -17.1
-70.627890 43.126453 -9.4
-70.619738 43.126458 -18.3
-70.627352 43.126467 -10.1
-70.626235 43.126475 -11.3
-70.626852 43.126481 -10.7
-70.617365 43.126550 -16.5
-70.617952 43.126567 -15.8
-70.630029 43.126575 -7.6
-70.621874 43.126586 -16.2
-70.632552 43.126589 -0.6
-70.616788 43.126592 -18.3
-70.625596 43.126592 -9.8
-70.622471 43.126603 -14.9
-70.630624 43.126603 -7.0
-70.618646 43.126606 -15.8
-70.625043 43.126608 -7.9
-70.632188 43.126608 -0.9
-70.620171 43.126611 -18.3
-70.623085 43.126614 -12.5
-70.624374 43.126614 -10.7
-70.623652 43.126617 -8.5
-70.631240 43.126617 -6.1
-70.631724 43.126625 -4.0
-70.629479 43.126628 -8.2
-70.621327 43.126642 -16.8
-70.619515 43.126658 -18.6
-70.628346 43.126672 -8.8
-70.620715 43.126678 -17.7
-70.628927 43.126678 -8.2
-70.627171 43.126745 -10.4
-70.627727 43.126747 -9.4
-70.626502 43.126756 -10.4
-70.617713 43.126789 -15.2
-70.625949 43.126792 -11.9
-70.616224 43.126828 -17.1
-70.625354 43.126831 -8.8
-70.622682 43.126842 -12.8
-70.618104 43.126845 -15.5
-70.624671 43.126853 -11.6
-70.624065 43.126870 -8.8
-70.623293 43.126878 -10.7
-70.620893 43.126900 -17.1
-70.622099 43.126900 -16.2
-70.621507 43.126920 -16.8
-70.620204 43.126922 -18.0
-70.616532 43.126970 -18.0
-70.618510 43.126970 -14.3
-70.619077 43.126972 -19.2
-70.617196 43.126989 -18.3
-70.617729 43.127081 -15.2
-70.626085 43.127100 -10.7
-70.622868 43.127197 -10.7
-70.624979 43.127197 -11.9
-70.624527 43.127203 -9.1
-70.622229 43.127217 -15.2
-70.621543 43.127222 -16.2
-70.623496 43.127233 -9.4
-70.620977 43.127247 -16.8
-70.618207 43.127253 -16.2
-70.617388 43.127258 -17.7
-70.630921 43.127289 -6.4
-70.616540 43.127295 -17.7
-70.628535 43.127295 -8.2
-70.619685 43.127297 -18.3
-70.630377 43.127297 -7.0
-70.629157 43.127300 -7.9
-70.627868 43.127303 -8.8
-70.619168 43.127306 -18.9
-70.618613 43.127311 -14.0
-70.620271 43.127311 -17.4
-70.632124 43.127314 -1.5
-70.627304 43.127322 -9.4
-70.626688 43.127328 -9.8
-70.629810 43.127328 -7.3
-70.631543 43.127331 -3.4
-70.632499 43.127333 -3.4
-70.617879 43.127339 -17.1
-70.626018 43.127381 -10.4
-70.616971 43.127428 -17.1
-70.624821 43.127433 -11.6
-70.625396 43.127445 -11.0
-70.624124 43.127456 -11.3
-70.623499 43.127514 -12.8
-70.621718 43.127531 -14.0
-70.622363 43.127531 -13.1
-70.623118 43.127553 -11.6
-70.621174 43.127561 -16.2
-70.620585 43.127589 -16.2
-70.619246 43.127600 -15.2
-70.619807 43.127625 -17.7
-70.617515 43.127664 -16.5
-70.618113 43.127667 -16.2
-70.616377 43.127695 -18.6
-70.618779 43.127728 -14.6
-70.627046 43.127758 -9.4
-70.616879 43.127764 -16.2
-70.630757 43.127764 -6.7
-70.627746 43.127767 -8.8
-70.630096 43.127778 -6.7
-70.628977 43.127781 -7.6
-70.629560 43.127781 -7.3
-70.628290 43.127803 -8.2
-70.625810 43.127811 -10.4
-70.626460 43.127839 -9.8
-70.619640 43.127850 -13.7
-70.625182 43.127850 -11.0
-70.623290 43.127853 -12.8
-70.622563 43.127856 -12.2
-70.620890 43.127864 -15.8
-70.623849 43.127867 -11.9
