-70.683251 42.685144 -14.1
-70.683257 42.684669 -13.8
-70.683265 42.684197 -13.5
-70.683271 42.683722 -13.4
-70.683279 42.683247 -13.0
-70.683287 42.682772 -12.9
-70.683271 42.682313 -12.5
-70.683254 42.681852 -12.3
-70.683237 42.681391 -12.0
-70.683221 42.680930 -11.7
-70.683204 42.680469 -11.6
-70.683198 42.679544 -11.1
-70.683212 42.679077 -10.9
-70.683226 42.678611 -10.5
-70.683240 42.678147 -10.4
-70.684098 42.670023 -6.8
-70.684104 42.670509 -6.8
-70.684109 42.670998 -7.0
-70.684059 42.672412 -7.6
-70.684032 42.672876 -7.8
-70.683959 42.673820 -8.1
-70.683918 42.674301 -8.5
-70.683876 42.674780 -8.7
-70.683834 42.675261 -8.7
-70.750717 42.670411 -2.0
-70.751373 42.670497 -1.8
-70.752075 42.670727 -1.6
-70.752781 42.670958 -1.3
-70.753486 42.671191 -1.8
-70.754192 42.671425 -1.0
-70.754767 42.671783 -1.2
-70.755345 42.672141 -1.2
-70.755923 42.672500 -0.7
-70.756503 42.672861 -0.4
-70.756986 42.673302 -1.0
-70.757470 42.673744 -1.8
-70.757956 42.674186 -1.5
-70.758442 42.674630 -1.0
-70.759103 42.674880 -1.2
-70.759764 42.675130 -0.5
-70.760425 42.675380 0.1
-70.763734 42.676425 -0.2
-70.764342 42.676644 -0.2
-70.764950 42.676861 -0.1
-70.792165 42.659122 0.1
-70.791771 42.659372 0.2
-70.791382 42.659505 0.1
-70.790685 42.659877 0.4
-70.790621 42.660202 -0.2
-70.790649 42.660411 0.5
-70.791507 42.660827 -0.8
-70.792779 42.660422 -0.1
-70.793737 42.661352 -0.8
-70.793901 42.662330 -0.4
-70.793551 42.660688 -1.3
-70.793268 42.660419 0.1
-70.793746 42.661661 -1.2
-70.794096 42.662641 -1.0
-70.793643 42.661019 -1.0
-70.793751 42.661866 0.1
-70.793549 42.663291 -0.3
-70.793940 42.663291 -1.0
-70.793190 42.663383 -1.0
-70.793679 42.663291 -0.1
-70.792657 42.663138 0.1
-70.792790 42.662797 -0.4
-70.792924 42.662455 -1.1
-70.791410 42.662069 -0.3
-70.793057 42.662111 0.5
-70.792604 42.661975 0.5
-70.791082 42.662030 0.1
-70.792307 42.661997 -0.1
-70.791860 42.662033 -0.4
-70.788782 42.663213 -0.9
-70.790421 42.661952 -0.4
-70.790018 42.662113 -0.2
-70.789710 42.662388 -0.4
-70.789462 42.662608 -0.2
-70.789093 42.662938 -0.2
-70.790360 42.663441 -0.5
-70.788590 42.663552 -2.0
-70.788957 42.663700 -1.6
-70.789424 42.663616 0.5
-70.789890 42.663530 0.1
-70.790812 42.663552 -0.4
-70.791068 42.663808 -1.0
-70.791035 42.664908 0.2
-70.791076 42.664116 0.2
-70.791087 42.664425 -0.4
-70.790596 42.665272 -0.2
-70.790215 42.665483 -0.1
-70.789832 42.665694 -0.1
-70.789829 42.667713 -0.4
-70.789524 42.666266 -2.0
-70.789599 42.666627 -0.5
-70.789751 42.667350 -0.1
-70.788682 42.668036 -1.0
-70.789615 42.668141 -0.1
-70.789149 42.668091 -2.2
-70.788265 42.668005 -1.1
-70.787846 42.667972 -0.5
-70.787426 42.667938 -0.4
-70.785757 42.668075 -0.2
-70.786132 42.668041 -0.1
-70.785407 42.668333 -0.2
-70.785079 42.668780 0.2
-70.784929 42.669097 0.4
-70.784776 42.669413 0.5
-70.784474 42.670047 -0.2
-70.784321 42.670363 -0.2
-70.783924 42.670480 -0.3
-70.783526 42.670600 -0.1
-70.782329 42.670961 -0.1
-70.781904 42.671100 0.1
-70.781476 42.671238 0.1
-70.781051 42.671377 -0.1
-70.780624 42.671516 -0.1
-70.780196 42.671655 -0.5
-70.779768 42.671797 -0.6
-70.779476 42.672086 -0.3
-70.779185 42.672375 -0.5
-70.778893 42.672663 -0.4
-70.778601 42.672952 -0.3
-70.778307 42.673241 -0.6
-70.778015 42.673530 0.2
-70.777724 42.673819 0.7
-70.777429 42.674111 0.7
-70.777074 42.673894 0.5
-70.776718 42.673675 0.6
-70.776362 42.673458 0.2
-70.776004 42.673238 0.6
-70.774868 42.672911 0.6
-70.774443 42.673025 -0.7
-70.774018 42.673138 0.5
-70.773596 42.673252 0.6
-70.771329 42.673875 -0.7
-70.770832 42.674013 0.1
-70.769837 42.674291 0.7
-70.768812 42.674533 0.5
-70.768285 42.674633 0.2
-70.767759 42.674733 -0.2
-70.767231 42.674833 -0.5
-70.766703 42.674933 -0.2
-70.766384 42.675288 0.3
-70.766061 42.675644 0.3
-70.765420 42.676358 0.1
-70.764775 42.677072 -0.2
-70.764478 42.676338 -0.2
-70.765053 42.675483 0.2
-70.765628 42.674625 -0.2
-70.765917 42.674197 -1.3
-70.766206 42.673766 0.7
-70.766789 42.673719 -0.5
-70.767375 42.673672 -0.2
-70.767961 42.673622 0.9
-70.769057 42.673491 0.5
-70.769568 42.673408 0.5
-70.770079 42.673325 1.0
-70.770590 42.673241 0.9
-70.771104 42.673158 0.8
-70.771754 42.673136 0.1
-70.772404 42.673111 -0.8
-70.773054 42.673088 0.2
-70.775657 42.672991 0.8
-70.775829 42.673494 -0.9
-70.775282 42.673505 0.1
-70.774735 42.673519 0.2
-70.774185 42.673530 0.3
-70.773635 42.673544 0.4
-70.773090 42.673561 0.7
-70.772543 42.673580 0.6
-70.771996 42.673600 -0.3
-70.771449 42.673619 -0.2
-70.770901 42.673638 0.1
-70.770351 42.673658 -0.5
-70.769810 42.673750 -0.9
-70.769265 42.673841 -1.2
-70.768540 42.673963 0.1
-70.768175 42.674027 -0.9
-70.767631 42.674119 -1.0
-70.767086 42.674211 -0.5
-70.766542 42.674305 -0.4
-70.765989 42.674461 -0.2
-70.764878 42.674777 -1.3
-70.764320 42.674936 0.3
-70.764175 42.675336 0.7
-70.763881 42.676136 0.4
-70.765384 42.677150 0.2
-70.765211 42.677130 -0.9
-70.764339 42.677025 -0.7
-70.763817 42.676961 -0.5
-70.763292 42.676894 -1.8
-70.762798 42.676755 -1.3
-70.762300 42.676616 -0.8
-70.761806 42.676475 -0.7
-70.761309 42.676336 -0.9
-70.760811 42.676194 -1.3
-70.760342 42.676019 -1.6
-70.759870 42.675844 -1.7
-70.759400 42.675666 -1.6
-70.758928 42.675488 -2.0
-70.758511 42.675222 -1.8
-70.758095 42.674952 -1.3
-70.757678 42.674683 -1.1
-70.757259 42.674413 -0.6
-70.756342 42.673983 -0.2
-70.755881 42.673769 -0.1
-70.755423 42.673552 -0.2
-70.754961 42.673336 -0.1
-70.754500 42.673119 0.1
-70.754217 42.672536 -0.5
-70.754692 42.672833 -0.6
-70.755170 42.673127 -0.4
-70.755645 42.673425 -0.1
-70.756123 42.673722 -0.2
-70.756600 42.674019 -0.3
-70.758028 42.674505 -1.7
-70.757600 42.674263 -1.3
-70.757170 42.674022 -0.8
-70.756742 42.673780 -0.4
-70.756311 42.673536 -0.2
-70.755934 42.673250 -1.0
-70.755553 42.672963 -1.4
-70.755173 42.672677 -1.5
-70.754792 42.672388 -1.6
-70.754411 42.672102 -1.7
-70.754028 42.671813 -1.7
-70.753570 42.671605 -1.8
-70.752653 42.671188 -0.9
-70.752192 42.670977 -1.5
-70.751692 42.670813 -2.0
-70.749192 42.669991 0.2
-70.750456 42.671480 -1.3
-70.751067 42.671613 -1.0
-70.751678 42.671750 -0.7
-70.752289 42.671883 -0.3
-70.752900 42.672016 0.2
-70.753514 42.672152 -0.1
-70.753056 42.671577 0.1
-70.752489 42.671413 0.2
-70.751920 42.671250 0.2
-70.751350 42.671086 -0.2
-70.750778 42.670919 -0.4
-70.750273 42.670841 -0.9
-70.749764 42.670763 -1.3
-70.749256 42.670686 -1.6
-70.748748 42.670605 -1.6
-70.741339 42.660611 -0.9
-70.741353 42.660388 0.2
-70.741417 42.659552 -0.3
-70.741470 42.658688 -0.1
-70.741495 42.658258 -0.2
-70.741523 42.657825 -0.2
-70.741578 42.656958 -0.2
-70.738074 42.650794 -1.6
-70.737074 42.650608 -3.4
-70.736549 42.650480 -3.2
-70.736022 42.650350 -3.1
-70.735494 42.650222 -3.3
-70.734966 42.650091 -3.8
-70.734374 42.650125 -3.5
-70.733780 42.650161 -1.6
-70.732588 42.650234 -2.2
-70.736060 42.649622 0.3
-70.735499 42.649566 0.2
-70.734935 42.649512 0.1
-70.734372 42.649453 -0.1
-70.733808 42.649398 -0.4
-70.733244 42.649339 -0.4
-70.732691 42.649248 -0.1
-70.732135 42.649153 0.1
-70.731580 42.649059 0.3
-70.730580 42.649217 -0.4
-70.730072 42.649237 -1.8
-70.729733 42.649251 -2.1
-70.729052 42.649278 -4.5
-70.728541 42.649301 -2.3
-70.727924 42.649376 -0.1
-70.727305 42.649451 -0.5
-70.726685 42.649526 -1.0
-70.726066 42.649601 -0.6
-70.726316 42.649217 -0.2
-70.726727 42.648962 -0.7
-70.727141 42.648706 -0.1
-70.727555 42.648448 0.2
-70.727513 42.649520 -0.1
-70.727635 42.650117 -2.6
-70.721347 42.653392 0.4
-70.721344 42.653812 0.5
-70.721338 42.654234 1.1
-70.721324 42.655076 1.3
-70.721383 42.655503 0.1
-70.721441 42.655930 -3.0
-70.721499 42.656358 -3.2
-70.721560 42.656788 -0.5
-70.721741 42.657125 0.5
-70.722013 42.657630 -0.2
-70.722472 42.658475 -0.1
-70.722135 42.658247 0.5
-70.722280 42.658683 0.2
-70.722427 42.659122 0.2
-70.724477 42.664238 -0.5
-70.724333 42.663833 -0.6
-70.724188 42.663427 -0.1
-70.724044 42.663019 0.4
-70.723930 42.662755 0.6
-70.723294 42.661236 -5.9
-70.723083 42.660588 -7.2
-70.724819 42.662180 -0.3
-70.725008 42.662616 0.3
-70.725197 42.663052 0.5
-70.725388 42.663491 0.7
-70.725388 42.663908 0.6
-70.725391 42.664325 0.7
-70.725394 42.664741 0.6
-70.725399 42.665161 0.7
-70.726074 42.666088 0.1
-70.726410 42.666552 -0.7
-70.726569 42.666772 0.3
-70.727085 42.667483 -0.5
-70.727310 42.667794 0.7
-70.727797 42.668305 0.4
-70.728169 42.668661 0.4
-70.728544 42.669016 0.7
-70.728916 42.669372 1.0
-70.729291 42.669730 0.8
-70.729649 42.670075 0.7
-70.730010 42.670419 0.9
-70.730369 42.670766 1.2
-70.731327 42.673102 0.2
-70.731298 42.673561 0.3
-70.731267 42.674019 -0.1
-70.731236 42.674477 -0.8
-70.731111 42.675405 -2.0
-70.731020 42.675875 -2.2
-70.730928 42.676341 -2.2
-70.730836 42.676811 -2.3
-70.730745 42.677280 -2.6
-70.730689 42.677752 -3.0
-70.730634 42.678225 -3.2
-70.730517 42.679172 -3.4
-70.712533 42.665797 -2.0
-70.712613 42.666238 -2.1
-70.712694 42.666680 -1.8
-70.712777 42.667122 -1.8
-70.712860 42.667566 -1.8
-70.712869 42.667977 -1.8
-70.712880 42.668391 -1.5
-70.712891 42.668805 -1.4
-70.712905 42.669222 -1.4
-70.750111 42.653044 0.3
-70.750667 42.653083 -2.1
-70.752336 42.653208 -1.6
-70.753061 42.653250 -2.0
-70.753786 42.653291 -2.6
-70.755236 42.653375 -1.8
-70.755964 42.653419 0.1
-70.760606 42.643319 -2.2
-70.766011 42.639038 -2.4
-70.767975 42.638675 -2.1
-70.760328 42.641597 0.4
-70.760331 42.642013 -0.1
-70.760345 42.643272 -1.2
-70.760381 42.643688 -0.1
-70.760417 42.644108 0.4
-70.760456 42.644527 0.7
-70.760531 42.645366 0.4
-70.760489 42.645802 -0.5
-70.760448 42.646241 0.5
-70.760403 42.646680 0.2
-70.760361 42.647119 0.4
-70.760320 42.647558 0.5
-70.760234 42.648436 0.7
-70.760189 42.648877 0.5
-70.755175 42.651880 0.7
-70.754809 42.652111 0.1
-70.754320 42.652122 -0.1
-70.753828 42.652136 -0.1
-70.753339 42.652150 -0.2
-70.752848 42.652163 -0.4
-70.752356 42.652177 -0.8
-70.751864 42.652191 -1.3
-70.751306 42.652175 -2.3
-70.750748 42.652155 -3.8
-70.749628 42.652116 -5.8
-70.749067 42.652097 -0.5
-70.748806 42.652088 -0.2
-70.748317 42.652066 0.4
-70.747936 42.652044 -0.4
-70.747367 42.652011 -2.9
-70.746798 42.651977 -1.4
-70.746036 42.651933 0.7
-70.745659 42.651911 -0.9
-70.745086 42.651877 -3.0
-70.744670 42.651972 -2.7
-70.744473 42.652016 -2.1
-70.742569 42.652455 -2.5
-70.743341 42.651555 -2.7
-70.744002 42.651502 -2.5
-70.745325 42.651397 -1.0
-70.745986 42.651341 0.7
-70.746648 42.651288 0.4
-70.747311 42.651233 -1.3
-70.747809 42.651119 0.4
-70.748306 42.651002 0.7
-70.749803 42.650652 0.8
-70.750303 42.650536 -0.8
-70.750881 42.650388 -1.0
-70.751459 42.650241 -0.4
-70.752036 42.650094 -1.2
-70.752614 42.649944 -1.3
-70.753192 42.649797 -2.0
-70.753773 42.649647 -2.9
-70.754348 42.649472 -1.8
-70.755773 42.649033 0.3
-70.756081 42.648936 0.1
-70.756525 42.648597 -0.4
-70.756973 42.648258 -0.5
-70.757420 42.647916 -0.4
-70.757870 42.647575 0.2
-70.757956 42.648136 0.6
-70.757614 42.648458 0.5
-70.757273 42.648783 0.6
-70.756931 42.649105 0.6
-70.756589 42.649430 0.6
-70.756248 42.649755 0.9
-70.755714 42.649850 0.9
-70.755178 42.649947 0.5
-70.754642 42.650041 0.6
-70.754106 42.650138 0.9
-70.753034 42.650330 0.5
-70.752436 42.650452 0.4
-70.751836 42.650577 0.5
-70.751239 42.650700 0.5
-70.750639 42.650825 0.5
-70.750039 42.650950 0.4
-70.749439 42.651075 -1.3
-70.749098 42.651216 0.1
-70.748756 42.651358 -0.7
-70.748411 42.651502 -5.8
-70.792379 42.660597 0.1
-70.747589 42.651669 -6.5
-70.747111 42.651691 -3.7
-70.746156 42.651738 -6.8
-70.745678 42.651763 -6.1
-70.743769 42.651872 -4.4
-70.743294 42.651905 -3.8
-70.742377 42.650722 0.7
-70.744258 42.651211 1.0
-70.744731 42.651336 0.2
-70.728238 42.652276 0.7
-70.728213 42.652681 0.7
-70.728191 42.653086 0.8
-70.728166 42.653494 0.8
-70.728172 42.653897 0.9
-70.728180 42.654302 0.8
-70.728185 42.654708 0.8
-70.728194 42.655111 0.7
-70.728199 42.655516 0.7
-70.728208 42.655922 0.7
-70.728216 42.656327 0.5
-70.729877 42.656702 0.2
-70.730549 42.656766 0.1
-70.731222 42.656827 0.2
-70.731894 42.656891 0.3
-70.732566 42.656955 0.4
-70.733238 42.657019 0.7
-70.735991 42.658169 0.7
-70.735452 42.658100 0.1
-70.734910 42.658027 -0.2
-70.734372 42.657955 -0.6
-70.733830 42.657883 -0.7
-70.733288 42.657811 -1.4
-70.732747 42.657736 -1.5
-70.732194 42.657672 -1.8
-70.731638 42.657608 -1.4
-70.731085 42.657544 -1.6
-70.730530 42.657480 -1.7
-70.729974 42.657416 -2.1
-70.729419 42.657350 -2.1
-70.729691 42.658177 -1.2
-70.730374 42.658261 -0.9
-70.731058 42.658344 -0.7
-70.731741 42.658427 -0.5
-70.732427 42.658511 -0.7
-70.733105 42.658597 -0.9
-70.733783 42.658686 -0.5
-70.734460 42.658772 -0.7
-70.735138 42.658861 -0.7
-70.735538 42.659622 -0.1
-70.734988 42.659572 -0.1
-70.734438 42.659519 0.1
-70.733885 42.659466 0.2
-70.733335 42.659413 0.1
-70.732783 42.659361 0.2
-70.732230 42.659308 0.1
-70.731124 42.659169 -0.2
-70.730569 42.659097 -0.2
-70.730016 42.659027 -0.3
-70.729460 42.658955 -0.4
-70.729497 42.649812 0.7
-70.756814 42.652833 -1.6
-70.760603 42.648902 -1.4
-70.761048 42.641802 -0.4
-70.761034 42.642163 0.2
-70.761017 42.642527 0.5
-70.761000 42.642888 0.5
-70.760984 42.643252 0.5
-70.761125 42.643630 0.4
-70.761270 42.644008 0.1
-70.761414 42.644386 -0.1
-70.761559 42.644766 0.0
-70.761703 42.645144 0.0
-70.761848 42.645525 -0.1
-70.761753 42.645938 0.2
-70.761659 42.646355 -0.1
-70.761564 42.646772 -0.1
-70.761375 42.647605 0.2
-70.761278 42.648022 0.4
-70.761220 42.648380 0.5
-70.761161 42.648738 0.5
-70.761103 42.649100 0.6
-70.760795 42.649433 0.5
-70.760484 42.649766 -0.6
-70.760175 42.650100 0.0
-70.759864 42.650433 -0.5
-70.759553 42.650766 -0.9
-70.759242 42.651102 -1.3
-70.758900 42.651450 -1.4
-70.758559 42.651800 -1.2
-70.758214 42.652150 -0.9
-70.757873 42.652500 -0.6
-70.757528 42.652850 -0.9
-70.757186 42.653200 0.1
-70.756842 42.653550 -0.1
-70.756498 42.653900 -0.5
-70.755967 42.653886 -0.4
-70.755434 42.653872 0.4
-70.754903 42.653855 0.5
-70.754370 42.653841 0.5
-70.753836 42.653825 0.6
-70.753303 42.653808 0.5
-70.752750 42.653797 0.7
-70.752198 42.653783 0.7
-70.750720 42.653747 -3.7
-70.749981 42.653727 0.2
-70.749756 42.652586 -0.6
-70.750403 42.652622 -1.8
-70.751050 42.652661 -2.3
-70.751700 42.652697 -1.6
-70.752350 42.652736 -0.3
-70.753706 42.652711 0.2
-70.754386 42.652700 -0.2
-70.755064 42.652686 -0.8
-70.755745 42.652672 -1.6
-70.756206 42.652333 -1.2
-70.756670 42.651991 -0.6
-70.757131 42.651650 -0.2
-70.757595 42.651308 -0.1
-70.758056 42.650966 -0.1
-70.758520 42.650625 -0.1
-70.766045 42.649458 0.1
-70.764845 42.649475 -0.1
-70.764245 42.649483 -0.7
-70.763645 42.649491 -0.4
-70.763036 42.649500 0.1
-70.762425 42.649508 0.1
-70.761817 42.649519 -0.5
-70.761206 42.649527 0.3
-70.761828 42.649988 0.2
-70.762464 42.649961 0.1
-70.763100 42.649933 0.1
-70.763736 42.649902 0.3
-70.760803 42.650041 0.5
-70.760484 42.650400 0.4
-70.760161 42.650758 0.3
-70.759839 42.651116 0.1
-70.759514 42.651477 -0.1
-70.759195 42.651838 0.1
-70.758873 42.652200 -1.9
-70.758553 42.652563 0.2
-70.758231 42.652925 -1.5
-70.757909 42.653288 0.1
-70.757495 42.653630 -0.1
-70.757081 42.653972 -0.4
-70.756667 42.654313 -0.4
-70.756250 42.654658 -0.7
-70.755836 42.655000 -0.5
-70.755420 42.655344 -0.2
-70.755023 42.655663 0.1
-70.754625 42.655986 -0.2
-70.754228 42.656308 -0.5
-70.753434 42.656952 -0.4
-70.753034 42.657277 -1.0
-70.752639 42.657611 -1.4
-70.752242 42.657944 -1.7
-70.751848 42.658277 -2.0
-70.751450 42.658611 -0.7
-70.751056 42.658944 -0.8
-70.750659 42.659277 -0.1
-70.750278 42.659580 0.3
-70.749895 42.659886 0.5
-70.749511 42.660188 0.2
-70.749128 42.660494 -0.3
-70.748745 42.660800 -0.4
-70.748361 42.661105 -0.7
-70.747992 42.661436 -0.2
-70.747620 42.661769 -0.7
-70.747248 42.662102 -0.7
-70.746875 42.662436 -0.6
-70.746503 42.662769 0.2
-70.746128 42.663102 0.3
-70.745584 42.663102 0.2
-70.745036 42.663102 -0.9
-70.744489 42.663105 -1.7
-70.743942 42.663105 -2.2
-70.743395 42.663108 -2.2
-70.742848 42.663111 -1.6
-70.743098 42.662572 0.2
-70.743756 42.662533 0.2
-70.744417 42.662491 -0.2
-70.745078 42.662450 -0.7
-70.745742 42.662408 -1.2
-70.746223 42.662038 -1.3
-70.746703 42.661669 -1.3
-70.747186 42.661300 -1.0
-70.747667 42.660930 -0.1
-70.748150 42.660561 0.2
-70.748634 42.660188 0.5
-70.750070 42.659069 -0.8
-70.750550 42.658697 -1.2
-70.751031 42.658322 -0.9
-70.751511 42.657947 -0.1
-70.751995 42.657580 -0.5
-70.752967 42.656847 0.2
-70.753453 42.656480 0.5
-70.753939 42.656111 -0.3
-70.754303 42.655702 -0.5
-70.754667 42.655291 -0.5
-70.755031 42.654880 -0.9
-70.755398 42.654469 -0.9
-70.756128 42.653644 0.2
-70.749884 42.651852 -10.9
-70.750017 42.652255 -2.7
-70.750420 42.653469 -0.4
-70.750556 42.653875 -0.1
-70.750692 42.654280 -1.3
-70.750975 42.654652 -2.5
-70.751259 42.655027 -2.6
-70.751542 42.655400 -0.9
-70.751825 42.655775 0.2
-70.752111 42.656150 0.4
-70.752467 42.656583 0.2
-70.753542 42.657883 0.2
-70.753739 42.657100 -0.7
-70.752781 42.655991 -0.4
-70.752461 42.655619 -0.9
-70.752153 42.655255 -0.2
-70.751842 42.654891 -0.2
-70.751531 42.654527 -0.2
-70.751220 42.654163 -1.6
-70.751503 42.653216 0.5
-70.751761 42.653566 0.7
-70.752284 42.654272 0.6
-70.752542 42.654622 0.5
-70.752803 42.654975 0.0
-70.753064 42.655327 -1.0
-70.753150 42.658219 0.5
-70.754009 42.657538 0.0
-70.754436 42.657200 -0.1
-70.754867 42.656858 0.2
-70.755295 42.656516 0.2
-70.755725 42.656175 0.2
-70.756131 42.655841 -0.2
-70.756536 42.655508 0.5
-70.756942 42.655175 0.4
-70.757350 42.654838 0.4
-70.757756 42.654505 -0.1
-70.758164 42.654169 -0.4
-70.758956 42.653497 -0.7
-70.759220 42.653272 -1.7
-70.759750 42.652822 0.6
-70.758531 42.652969 -1.6
-70.759398 42.653680 -1.0
-70.759831 42.654038 -1.3
-70.760264 42.654394 -1.6
-70.760698 42.654752 -0.7
-70.761134 42.655111 0.2
-70.761581 42.655452 0.6
-70.762031 42.655797 0.5
-70.762478 42.656141 0.5
-70.762928 42.656486 0.2
-70.763378 42.656830 0.2
-70.763828 42.657175 0.1
-70.764225 42.657533 0.4
-70.764625 42.657894 0.5
-70.765025 42.658255 0.3
-70.765425 42.658616 -0.1
-70.765825 42.658977 -0.2
-70.766231 42.659350 0.2
-70.766636 42.659725 0.4
-70.767045 42.660100 0.2
-70.767450 42.660475 -0.6
-70.767859 42.660850 -0.1
-70.768209 42.661269 0.4
-70.768559 42.661688 0.1
-70.768911 42.662111 -0.2
-70.769261 42.662530 -0.2
-70.769614 42.662952 0.1
-70.768698 42.663011 0.5
-70.768445 42.662619 0.1
-70.768189 42.662227 -0.4
-70.767934 42.661836 -0.2
-70.767678 42.661441 -0.2
-70.767236 42.661058 0.0
-70.766792 42.660675 0.2
-70.766348 42.660291 -0.2
-70.765903 42.659908 -0.3
-70.765459 42.659525 -0.1
-70.765014 42.659141 -0.2
-70.764556 42.658800 -0.4
-70.764098 42.658455 -1.1
-70.762261 42.657077 -0.1
-70.761792 42.656738 -0.1
-70.761320 42.656397 -1.6
-70.760850 42.656055 -0.5
-70.760378 42.655713 -0.1
-70.759906 42.655372 0.0
-70.759475 42.655030 0.2
-70.759045 42.654686 0.2
-70.758614 42.654344 0.1
-70.757750 42.653655 0.0
-70.757964 42.654627 0.4
-70.758395 42.654950 0.4
-70.758825 42.655275 0.5
-70.759256 42.655600 0.5
-70.759720 42.655930 0.3
-70.760184 42.656263 0.2
-70.760648 42.656597 0.2
-70.761111 42.656930 0.2
-70.761575 42.657263 -0.1
-70.762042 42.657597 -0.2
-70.762500 42.657922 -0.1
-70.762959 42.658250 0.0
-70.763417 42.658577 0.1
-70.763878 42.658905 0.2
-70.764336 42.659233 0.2
-70.764798 42.659563 0.2
-70.765256 42.659950 0.2
-70.765714 42.660336 0.0
-70.766173 42.660722 0.1
-70.766631 42.661111 0.2
-70.766745 42.660458 -1.2
-70.766236 42.660058 -1.1
-70.765725 42.659655 -0.9
-70.764192 42.658447 -1.1
-70.763764 42.658072 -1.0
-70.763336 42.657694 -1.1
-70.762906 42.657316 0.2
-70.762048 42.656561 -0.5
-70.761606 42.656211 -0.7
-70.761164 42.655858 -1.4
-70.760723 42.655505 -1.4
-70.760281 42.655152 -0.2
-70.759839 42.654800 -0.1
-70.759398 42.654444 -0.1
-70.758914 42.654127 -0.3
-70.757459 42.653166 -0.5
-70.755028 42.654133 0.2
-70.754645 42.654533 -0.1
-70.754261 42.654936 -0.4
-70.753878 42.655338 -0.7
-70.753495 42.655741 -0.5
-70.751386 42.657613 0.4
-70.750920 42.657947 0.1
-70.749981 42.658616 -0.2
-70.749509 42.658952 -0.2
-70.749486 42.659427 -0.2
-70.749464 42.659905 0.5
-70.747381 42.661611 -0.7
-70.746864 42.661916 -0.8
-70.745209 42.662638 -1.2
-70.744584 42.662750 -1.1
-70.743956 42.662861 -1.4
-70.742703 42.663083 -1.6
-70.742075 42.663194 -0.8
-70.733933 42.660202 0.4
-70.734497 42.660333 0.5
-70.735063 42.660463 0.5
-70.735630 42.660594 0.4
-70.736197 42.660727 0.4
-70.736780 42.660811 0.1
-70.737363 42.660897 0.5
-70.737947 42.660983 0.7
-70.738531 42.661069 0.7
-70.739117 42.661158 0.3
-70.745142 42.667294 -1.1
-70.745653 42.667002 -0.5
-70.746164 42.666711 -0.8
-70.747198 42.666088 -0.2
-70.747720 42.665758 0.3
-70.748242 42.665425 0.4
-70.748764 42.665094 0.1
-70.749286 42.664761 0.3
-70.749811 42.664427 0.3
-70.749253 42.663830 -0.5
-70.748686 42.664197 -0.3
-70.748117 42.664566 -0.2
-70.747550 42.664933 -0.4
-70.745900 42.666000 -0.7
-70.745386 42.666327 -0.5
-70.744875 42.666655 -0.2
-70.744361 42.666983 0.0
-70.742861 42.666925 -0.2
-70.743831 42.666369 0.2
-70.744317 42.666088 0.0
-70.744795 42.665833 0.3
-70.745275 42.665577 0.7
-70.745753 42.665319 0.7
-70.746234 42.665063 0.6
-70.746714 42.664805 0.4
-70.747195 42.664547 0.1
-70.747703 42.664280 -0.2
-70.748211 42.664011 -0.5
-70.748720 42.663744 -0.5
-70.749231 42.663475 -0.6
-70.749739 42.663205 -0.5
-70.750250 42.662936 -0.8
-70.750759 42.662680 -0.7
-70.751270 42.662425 -0.5
-70.751781 42.662166 -0.2
-70.752292 42.661911 -0.2
-70.752803 42.661652 -0.2
-70.753314 42.661394 -0.2
-70.753842 42.661144 -0.1
-70.754373 42.660894 -0.4
-70.754903 42.660641 -0.5
-70.755436 42.660388 -1.2
-70.756056 42.660402 -1.2
-70.756675 42.660419 -0.4
-70.757295 42.660436 -0.2
-70.757914 42.660452 -0.2
-70.758536 42.660469 -0.1
-70.759098 42.660608 0.2
-70.759659 42.660750 0.3
-70.760220 42.660888 0.4
-70.760784 42.661030 0.2
-70.761345 42.661172 0.3
-70.761909 42.661313 -0.1
-70.760531 42.661525 -0.4
-70.759778 42.661408 -0.4
-70.759025 42.661294 -0.2
-70.758273 42.661177 0.1
-70.757517 42.661061 0.2
-70.756989 42.661069 0.4
-70.756461 42.661077 0.3
-70.755934 42.661086 0.1
-70.755403 42.661094 -0.4
-70.754781 42.661355 -0.6
-70.754159 42.661619 -0.3
-70.753534 42.661880 -0.4
-70.752911 42.662144 -0.6
-70.752286 42.662408 -0.6
-70.751661 42.662672 -0.6
-70.751061 42.662938 -0.6
-70.750461 42.663208 -1.2
-70.749861 42.663477 -1.6
-70.744120 42.667427 0.2
-70.745456 42.666502 -0.7
-70.746548 42.665827 -0.7
-70.747095 42.665491 -1.0
-70.747642 42.665152 -0.7
-70.748109 42.664891 -0.2
-70.748578 42.664630 0.0
-70.749048 42.664369 0.1
-70.749520 42.664105 -0.2
-70.770435 42.673969 -0.5
-70.769990 42.674066 -1.5
-70.766431 42.674866 -0.2
-70.765650 42.675680 0.0
-70.764870 42.676497 -0.4
-70.764478 42.676905 -0.6
-70.734169 42.661427 -0.7
-70.750361 42.651833 -7.9
-70.751067 42.651772 -6.5
-70.751773 42.651711 -3.2
-70.752478 42.651650 -1.1
-70.753792 42.651616 0.4
-70.754450 42.651597 0.6
-70.755109 42.651577 0.8
-70.753911 42.651213 0.9
-70.753378 42.651263 0.6
-70.752842 42.651313 0.4
-70.752306 42.651363 -0.5
-70.751770 42.651416 -2.2
-70.750611 42.651275 -3.9
-70.751211 42.651150 -0.4
-70.751811 42.651025 0.4
-70.752414 42.650900 0.4
-70.753014 42.650775 0.7
-70.753617 42.650647 1.1
-70.758998 42.652458 0.5
-70.759370 42.652825 0.2
-70.759742 42.653191 -0.1
-70.760117 42.653561 -0.4
-70.760489 42.653927 -0.2
-70.760864 42.654297 -0.1
-70.762523 42.652730 0.4
-70.762036 42.652947 0.4
-70.761548 42.653163 0.5
-70.761059 42.653383 0.5
-70.760570 42.653602 0.2
-70.754553 42.661763 0.6
-70.754100 42.662000 0.6
-70.753645 42.662238 0.7
-70.753189 42.662477 0.6
-70.752731 42.662719 0.5
-70.752236 42.662947 0.6
-70.751739 42.663177 0.6
-70.751242 42.663408 -0.1
-70.750245 42.663872 0.8
-70.743889 42.668308 -1.7
-70.744898 42.667733 0.2
-70.745403 42.667444 0.3
-70.745909 42.667155 0.5
-70.746375 42.666886 0.6
-70.746842 42.666613 0.6
-70.747309 42.666341 0.8
-70.747778 42.666066 0.8
-70.742134 42.663797 0.5
-70.742748 42.663766 0.7
-70.743361 42.663736 0.7
-70.743978 42.663705 0.7
-70.744592 42.663672 0.6
-70.745209 42.663641 0.6
-70.745825 42.663608 0.6
-70.731408 42.651694 0.3
-70.731991 42.651838 0.5
-70.732574 42.651986 0.5
-70.733158 42.652133 0.4
-70.733744 42.652280 0.5
-70.734319 42.652400 0.8
-70.734894 42.652522 0.9
-70.735472 42.652644 0.9
-70.736047 42.652766 0.8
-70.736624 42.652888 0.8
-70.720669 42.650903 -0.4
-70.721258 42.651151 -1.2
-70.721652 42.651314 -0.4
-70.721849 42.651398 -0.5
-70.722835 42.651809 -0.1
-70.723033 42.651892 -0.7
-70.723822 42.652223 -2.4
-70.724333 42.661683 -1.1
-70.724894 42.661691 -0.5
-70.725455 42.661697 -0.2
-70.726016 42.661705 0.6
-70.726580 42.661713 1.1
-70.725160 42.661072 -2.7
-70.723824 42.661038 -5.2
-70.744239 42.669119 -2.1
-70.744739 42.668736 -0.4
-70.745239 42.668352 0.2
-70.745739 42.667969 0.3
-70.746242 42.667583 0.5
-70.735660 42.661711 -0.5
-70.736269 42.661875 -0.3
-70.736877 42.662038 -0.1
-70.737485 42.662202 0.1
-70.738581 42.662661 0.5
-70.739064 42.662955 0.4
-70.739550 42.663247 0.2
-70.740034 42.663541 -0.3
-70.740520 42.663836 -0.5
-70.742702 42.649400 -1.2
-70.742505 42.649847 -1.0
-70.742308 42.650297 0.4
-70.727349 42.648420 -0.1
-70.727366 42.650331 -1.3
-70.727430 42.652878 -1.5
-70.727477 42.653508 -1.0
-70.727524 42.654138 0.3
-70.727572 42.654772 0.5
-70.728363 42.656866 -1.3
-70.728338 42.657961 -2.4
-70.728327 42.658508 -1.5
-70.728313 42.659058 -0.9
-70.728297 42.659527 -0.4
-70.728277 42.660000 -0.5
-70.728258 42.660472 -1.0
-70.728216 42.661419 -2.6
-70.728877 42.661830 0.2
-70.728969 42.660838 -1.8
-70.729016 42.660341 -0.4
-70.729063 42.659844 -0.4
-70.729110 42.659347 -0.5
-70.729158 42.658850 -1.0
-70.729122 42.658313 -2.0
-70.729083 42.657775 -2.3
-70.729044 42.657236 -0.7
-70.729002 42.656697 0.4
-70.729827 42.656988 -0.3
-70.729760 42.657572 -2.6
-70.729622 42.658744 -0.7
-70.729549 42.659330 -0.1
-70.729727 42.660836 -1.6
-70.775628 42.631406 -2.1
-70.776289 42.631670 -2.0
-70.776606 42.632683 -1.5
-70.776475 42.631908 -2.0
-70.776806 42.632916 -1.8
-70.774931 42.631248 -2.0
-70.777545 42.632994 -1.6
-70.774173 42.631306 -1.9
-70.777242 42.633030 -1.8
-70.773881 42.631426 -1.8
-70.775961 42.631539 -2.3
-70.776564 42.632425 -1.2
-70.778170 42.632666 -3.0
-70.774553 42.631276 -1.7
-70.775281 42.631328 -2.0
-70.776520 42.632166 -1.5
-70.773198 42.632456 -2.3
-70.773081 42.631928 -1.8
-70.773136 42.632728 -1.6
-70.773139 42.632189 -2.0
-70.773070 42.633003 -2.1
-70.772900 42.633123 -1.6
-70.772534 42.633292 -2.4
-70.772181 42.633295 -2.5
-70.771825 42.633298 -2.0
-70.771470 42.633301 -1.9
-70.771114 42.633306 -2.0
-70.770559 42.633478 -2.4
-70.770456 42.633673 -2.2
-70.769986 42.635747 -2.0
-70.770245 42.634070 -2.0
-70.770148 42.634402 -1.8
-70.769886 42.636336 -2.0
-70.769803 42.636652 -2.1
-70.769936 42.636038 -2.0
-70.770109 42.634736 -1.8
-70.770070 42.635072 -2.0
-70.769720 42.636969 -1.9
-70.770028 42.635408 -2.0
-70.769636 42.637286 -1.6
-70.768659 42.638391 -2.0
-70.765492 42.639269 -2.2
-70.769550 42.637602 -2.0
-70.764464 42.640347 -2.0
-70.766728 42.638686 -2.3
-70.767720 42.638727 -2.1
-70.766367 42.638794 -2.6
-70.769167 42.638050 -2.0
-70.764875 42.639902 -2.4
-70.764673 42.640122 -2.3
-70.768359 42.638525 -2.0
-70.765289 42.639477 -2.3
-70.769359 42.637825 -1.5
-70.767392 42.638716 -2.1
-70.764211 42.640502 -1.5
-70.763634 42.640705 -2.2
-70.767061 42.638702 -2.3
-70.765084 42.639688 -2.2
-70.763309 42.640752 -2.1
-70.762984 42.640800 -2.2
-70.761961 42.640897 -2.0
-70.761286 42.641155 -1.8
-70.762645 42.640830 -2.2
-70.761625 42.641025 -2.1
-70.761081 42.641383 -1.8
-70.762303 42.640863 -2.2
-70.760359 42.642775 -1.9
-70.760353 42.642261 -1.0
-70.760353 42.642516 -1.2
-70.760700 42.641827 -1.9
-70.760675 42.643658 -2.5
-70.760425 42.642994 -1.9
-70.760528 42.642044 -1.5
-70.760786 42.643877 -2.4
-70.760898 42.644097 -2.1
-70.761009 42.644313 -1.8
-70.761120 42.644533 -1.7
-70.761231 42.644752 -1.5
-70.761359 42.646069 -1.5
-70.761345 42.644972 -1.3
-70.761348 42.645336 -1.2
-70.761242 42.646408 -1.8
-70.761353 42.645702 -1.3
-70.761123 42.646750 -1.9
-70.761003 42.647091 -1.7
-70.760886 42.647430 -1.7
-70.760767 42.647772 -1.6
-70.760648 42.648113 -1.6
-70.759364 42.650263 -1.6
-70.759886 42.649675 -1.4
-70.760528 42.648455 -1.6
-70.759081 42.650522 -1.5
-70.759628 42.649966 -1.5
-70.760048 42.649369 -1.5
-70.755253 42.652947 -1.9
-70.757359 42.652094 -1.5
-70.754298 42.653133 -1.7
-70.758034 42.651577 -1.3
-70.758795 42.650786 -1.3
-70.756173 42.652636 -2.1
-70.754778 42.653038 -1.8
-70.756964 42.652272 -1.6
-70.757698 42.651836 -1.3
-70.758542 42.651047 -1.3
-70.758289 42.651311 -1.3
-70.756570 42.652452 -2.0
-70.752509 42.652963 -2.2
-70.753873 42.653100 -1.7
-70.753456 42.653113 -2.1
-70.752050 42.652855 -2.1
-70.752984 42.653038 -2.0
-70.728706 42.687750 -5.7
-70.728009 42.687783 -5.9
-70.727309 42.687816 -6.0
-70.726609 42.687852 -6.2
-70.725911 42.687886 -6.3
-70.725211 42.687922 -6.5
-70.724511 42.687955 -6.5
-70.723811 42.687991 -6.7
-70.723111 42.688027 -6.8
-70.722391 42.688027 -7.2
-70.721672 42.688025 -7.3
-70.720952 42.688022 -7.5
-70.719510 42.688016 -7.8
-70.718069 42.688008 -8.1
-70.716766 42.687900 -8.5
-70.715463 42.687788 -8.8
-70.714810 42.687733 -8.8
-70.714158 42.687675 -9.1
-70.712769 42.687494 -9.3
-70.711377 42.687311 -9.6
-70.708627 42.686972 -10.0
-70.707947 42.686894 -10.2
-70.706585 42.686736 -10.4
-70.705905 42.686655 -10.7
-70.705191 42.686638 -10.8
-70.704477 42.686619 -11.0
-70.703047 42.686580 -11.3
-70.702333 42.686561 -11.5
-70.701616 42.686538 -11.6
-70.700935 42.686547 -11.6
-70.697519 42.686594 -12.7
-70.696858 42.686611 -12.9
-70.696194 42.686630 -13.0
-70.695530 42.686650 -13.2
-70.694202 42.686688 -13.5
-70.693538 42.686708 -13.5
-70.692866 42.686738 -13.8
-70.692191 42.686769 -13.8
-70.691516 42.686800 -13.8
-70.690841 42.686830 -14.0
-70.690166 42.686861 -14.1
-70.689491 42.686894 -14.2
-70.688858 42.686936 -14.4
-70.688222 42.686977 -14.4
-70.687588 42.687019 -14.6
-70.686952 42.687061 -14.8
-70.686316 42.687102 -15.0
-70.685679 42.687144 -15.1
-70.684343 42.687244 -15.3
-70.683673 42.687294 -15.4
-70.683004 42.687344 -15.4
-70.682334 42.687394 -15.5
-70.679009 42.687480 -15.9
-70.678346 42.687488 -16.0
-70.677679 42.687497 -16.0
-70.677018 42.687497 -16.0
-70.676354 42.687497 -16.0
-70.675690 42.687497 -16.2
-70.674362 42.687494 -16.5
-70.673009 42.687486 -16.7
-70.672321 42.687480 -16.7
-70.671632 42.687472 -16.7
-70.670940 42.687466 -16.7
-70.670251 42.687458 -16.9
-70.669559 42.687450 -16.9
-70.668929 42.687447 -16.9
-70.668298 42.687441 -17.0
-70.667665 42.687436 -17.0
-70.667034 42.687430 -17.0
-70.666401 42.687425 -17.0
-70.665768 42.687416 -17.0
-70.665101 42.687427 -16.9
-70.664434 42.687441 -16.9
-70.663768 42.687455 -16.8
-70.663098 42.687472 -16.8
-70.666459 42.688383 -17.6
-70.667090 42.688402 -17.6
-70.667721 42.688425 -17.6
-70.668351 42.688444 -17.6
-70.668984 42.688466 -17.6
-70.669615 42.688486 -17.6
-70.670248 42.688508 -17.6
-70.670873 42.688513 -17.6
-70.671501 42.688522 -17.5
-70.672129 42.688530 -17.4
-70.672757 42.688538 -17.3
-70.673384 42.688547 -17.3
-70.674012 42.688555 -17.3
-70.674609 42.688580 -17.3
-70.675807 42.688633 -17.1
-70.676404 42.688658 -17.0
-70.677004 42.688686 -17.0
-70.678218 42.688713 -16.9
-70.681293 42.688727 -16.5
-70.681921 42.688719 -16.5
-70.682551 42.688708 -16.4
-70.683182 42.688700 -16.4
-70.683812 42.688688 -16.4
-70.685710 42.688650 -16.1
-70.686983 42.688616 -16.0
-70.687619 42.688597 -15.8
-70.689508 42.688547 -15.1
-70.690124 42.688530 -15.1
-70.691358 42.688500 -14.9
-70.691974 42.688483 -14.9
-70.693208 42.688441 -14.8
-70.693827 42.688416 -14.6
-70.694447 42.688388 -14.6
-70.695066 42.688363 -14.4
-70.695685 42.688336 -14.3
-70.696308 42.688308 -14.2
-70.697483 42.688288 -14.0
-70.698658 42.688266 -13.5
-70.699244 42.688255 -13.3
-70.701791 42.688150 -12.7
-70.703097 42.688083 -12.4
-70.703752 42.688050 -12.1
-70.705547 42.687950 -11.5
-70.706747 42.687883 -11.3
-70.707347 42.687847 -11.1
-70.707933 42.687847 -11.0
-70.709110 42.687852 -10.5
-70.681266 42.699805 -23.2
-70.681297 42.698905 -22.7
-70.681313 42.698455 -22.3
-70.681258 42.697105 -21.6
-70.680893 42.695302 -20.7
-70.680801 42.694850 -20.5
-70.680709 42.694400 -20.1
-70.680618 42.693947 -19.8
-70.680554 42.691305 -18.3
-70.680473 42.689933 -17.4
-70.680368 42.688533 -16.4
-70.680332 42.688066 -16.0
-70.680323 42.687605 -15.7
-70.680312 42.687141 -15.4
-70.680301 42.686680 -15.1
-70.680290 42.686216 -14.9
-70.680279 42.685755 -14.7
-70.680268 42.685291 -14.4
-70.680268 42.684827 -14.1
-70.680271 42.684361 -13.9
-70.680273 42.683897 -13.6
-70.680276 42.683430 -13.2
-70.680279 42.682963 -12.9
-70.680284 42.682497 -12.7
-70.680290 42.682019 -12.2
-70.680296 42.681541 -12.1
-70.680304 42.681063 -11.8
-70.680309 42.680586 -11.6
-70.680318 42.680108 -11.5
-70.680323 42.679175 -11.0
-70.680318 42.678719 -11.0
-70.680315 42.678266 -10.8
-70.680307 42.677358 -10.1
-70.680301 42.676902 -9.9
-70.680321 42.676427 -9.6
-70.680343 42.675953 -9.3
-70.680365 42.675478 -9.1
-70.680387 42.675003 -8.9
-70.680409 42.674528 -8.7
-70.680432 42.674051 -8.4
-70.680432 42.673562 -8.2
-70.680434 42.673073 -8.1
-70.680437 42.672581 -8.1
-70.680443 42.671601 -7.4
-70.680446 42.671109 -7.1
-70.682029 42.671651 -7.4
-70.681996 42.672081 -7.6
-70.681959 42.672512 -7.8
-70.681926 42.672939 -7.9
-70.681857 42.673801 -8.2
-70.681648 42.675089 -8.8
-70.681390 42.676377 -9.4
-70.681301 42.676808 -9.6
-70.681090 42.678108 -10.4
-70.681018 42.678541 -10.7
-70.680946 42.678977 -10.9
-70.680946 42.679413 -11.1
-70.680946 42.679852 -11.3
-70.680948 42.680288 -11.4
-70.680948 42.680727 -11.6
-70.680951 42.681163 -11.8
-70.680954 42.681602 -12.1
-70.680932 42.682047 -12.2
-70.680909 42.682491 -12.7
-70.680887 42.682936 -13.0
-70.680865 42.683380 -13.2
-70.680843 42.683825 -13.4
-70.680818 42.684272 -13.7
-70.680782 42.684702 -14.0
-70.680746 42.685136 -14.4
-70.680709 42.685569 -14.5
-70.680671 42.686002 -14.8
-70.680634 42.686436 -15.0
-70.680626 42.689125 -16.8
-70.680634 42.689577 -17.1
-70.680726 42.690922 -18.0
-70.680790 42.691819 -18.6
-70.680821 42.692269 -18.8
-70.680884 42.693166 -19.4
-70.680918 42.693616 -19.6
-70.681572 42.700250 -23.5
-70.681466 42.699338 -22.9
-70.681308 42.697966 -22.2
-70.681252 42.697508 -21.8
-70.681144 42.696602 -21.3
-70.681088 42.696150 -21.2
-70.680921 42.692969 -19.3
-70.680923 42.692061 -18.8
-70.680915 42.691611 -18.5
-70.680896 42.690708 -18.0
-70.680862 42.689350 -17.2
-70.681643 42.682822 -12.9
-70.681698 42.682352 -12.6
-70.681754 42.681883 -12.1
-70.681809 42.681413 -12.1
-70.681865 42.680944 -11.6
-70.681907 42.680477 -11.5
-70.681951 42.680011 -11.0
-70.681996 42.679541 -11.0
-70.682040 42.679075 -10.9
-70.682084 42.678605 -10.6
-70.682132 42.678136 -10.4
-70.682287 42.677169 -9.8
-70.682365 42.676686 -9.6
-70.682446 42.676202 -9.3
-70.682523 42.675719 -9.2
-70.682604 42.675233 -9.0
-70.682662 42.674756 -8.7
-70.682723 42.674278 -8.5
-70.682784 42.673801 -8.5
-70.682846 42.673320 -8.5
-70.682907 42.672842 -8.2
-70.682968 42.672362 -8.0
-70.683109 42.671417 -7.3
-70.683179 42.670945 -7.1
-70.683251 42.670470 -6.8
-70.684098 42.671426 -7.3
-70.683807 42.673156 -8.0
-70.683732 42.673589 -8.1
-70.683640 42.674026 -8.4
-70.683457 42.674902 -8.8
-70.683365 42.675341 -8.8
-70.683273 42.675780 -9.1
-70.683179 42.676219 -9.2
-70.683098 42.676661 -9.4
-70.683015 42.677102 -9.8
-70.682851 42.677986 -10.2
-70.682768 42.678427 -10.6
-70.682684 42.678872 -10.7
-70.682657 42.679325 -10.9
-70.682598 42.680230 -11.5
-70.682568 42.680686 -11.6
-70.682537 42.681138 -11.8
-70.682507 42.681594 -12.0
-70.682479 42.682047 -12.1
-70.682451 42.682500 -12.6
-70.682423 42.682952 -12.7
-70.682393 42.683405 -13.1
-70.682365 42.683858 -13.4
-70.682334 42.684313 -13.6
-70.682284 42.684766 -13.9
-70.682234 42.685219 -14.3
-70.682184 42.685672 -14.5
-70.682134 42.686125 -14.8
-70.682084 42.686577 -15.1
-70.682032 42.687033 -15.4
-70.681965 42.687930 -15.8
-70.681932 42.688377 -16.4
-70.681865 42.689277 -16.9
-70.681832 42.689727 -17.3
-70.681818 42.690175 -17.6
-70.681801 42.690622 -17.8
-70.681784 42.691072 -18.2
-70.681768 42.691519 -18.5
-70.681751 42.691969 -18.7
-70.681734 42.692419 -18.9
-70.681679 42.693336 -19.5
-70.681651 42.693794 -19.8
-70.681566 42.695175 -20.7
-70.681716 42.696519 -21.4
-70.681766 42.696966 -21.8
-70.685204 42.669981 -6.6
-70.687034 42.670662 -6.9
-70.686990 42.671128 -7.0
-70.686943 42.671595 -7.2
-70.686740 42.673019 -7.7
-70.686632 42.673508 -7.9
-70.686523 42.673997 -8.0
-70.686415 42.674486 -8.4
-70.686307 42.674975 -8.5
-70.686198 42.675455 -8.8
-70.686087 42.675936 -9.0
-70.685979 42.676419 -9.2
-70.685868 42.676900 -9.4
-70.685757 42.677383 -9.7
-70.685646 42.677866 -9.8
-70.685534 42.678841 -10.2
-70.685476 42.679330 -10.3
-70.685421 42.679819 -10.7
-70.685304 42.680797 -11.2
-70.685312 42.681297 -11.6
-70.685321 42.681797 -11.6
-70.685329 42.682300 -12.0
-70.685340 42.682800 -12.3
-70.685348 42.683302 -12.7
-70.685359 42.683805 -13.0
-70.685451 42.684302 -13.3
-70.685543 42.684802 -13.5
-70.685637 42.685300 -14.0
-70.685729 42.685800 -14.1
-70.685823 42.686300 -14.4
-70.685918 42.686800 -14.8
-70.686122 42.687800 -15.4
-70.686224 42.688300 -15.7
-70.686635 42.690791 -17.1
-70.686838 42.692780 -18.4
-70.686894 42.693280 -18.7
-70.686949 42.693780 -19.1
-70.688274 42.701250 -22.9
-70.688305 42.699347 -22.3
-70.688199 42.698869 -22.0
-70.688091 42.698388 -21.7
-70.687983 42.697908 -21.5
-70.687874 42.697425 -21.1
-70.687808 42.696941 -20.9
-70.687738 42.696458 -20.4
-70.687669 42.695972 -20.4
-70.687597 42.695486 -20.1
-70.687535 42.695002 -19.8
-70.687472 42.694516 -19.5
-70.687410 42.694030 -19.1
-70.687347 42.693544 -18.9
-70.687285 42.693058 -18.6
-70.687222 42.692572 -18.3
-70.687138 42.692088 -17.9
-70.687052 42.691605 -17.5
-70.686969 42.691122 -17.5
-70.686797 42.690155 -16.9
-70.686710 42.689672 -16.5
-70.686641 42.689197 -16.2
-70.686572 42.688722 -16.0
-70.686315 42.686280 -14.4
-70.686340 42.685736 -14.2
-70.686365 42.685194 -14.0
-70.686390 42.684650 -13.7
-70.686415 42.684105 -13.4
-70.686440 42.683561 -13.0
-70.686284 42.683102 -12.6
-70.686126 42.682641 -12.4
-70.685971 42.682183 -12.2
-70.685812 42.681722 -11.9
-70.685690 42.675588 -9.0
-70.685668 42.675094 -8.8
-70.685568 42.674080 -8.2
-70.685487 42.673558 -8.2
-70.685893 42.670698 -7.1
-70.685896 42.671187 -7.2
-70.685901 42.672164 -7.6
-70.685929 42.673164 -8.0
-70.685954 42.673672 -8.2
-70.685979 42.674180 -8.4
-70.686004 42.674691 -8.6
-70.686084 42.675188 -8.9
-70.686165 42.675686 -9.1
-70.686248 42.676183 -9.1
-70.686329 42.676680 -9.4
-70.686412 42.677177 -9.7
-70.686496 42.677677 -9.7
-70.686562 42.678172 -10.1
-70.686696 42.679166 -10.5
-70.686762 42.679663 -10.8
-70.686829 42.680161 -11.0
-70.686896 42.680661 -11.3
-70.686929 42.681177 -11.6
-70.686965 42.681694 -11.8
-70.686998 42.682211 -12.1
-70.687034 42.682727 -12.4
-70.687071 42.683244 -12.7
-70.687107 42.683763 -12.9
-70.687173 42.684269 -13.4
-70.687240 42.684777 -13.4
-70.687310 42.685286 -13.7
-70.687377 42.685794 -14.1
-70.687447 42.686302 -14.5
-70.687516 42.686811 -14.7
-70.687580 42.687319 -15.1
-70.687647 42.687830 -15.4
-70.687713 42.688338 -15.7
-70.687780 42.688850 -15.9
-70.687847 42.689361 -16.2
-70.687913 42.689872 -16.4
-70.687997 42.690377 -16.7
-70.688080 42.690883 -17.1
-70.688163 42.691391 -17.4
-70.688247 42.691897 -17.7
-70.688413 42.692911 -18.3
-70.688497 42.693416 -18.7
-70.688633 42.698075 -21.6
-70.688602 42.698602 -21.9
-70.688569 42.699127 -22.1
-70.688538 42.699655 -22.4
-70.689069 42.701950 -23.3
-70.689049 42.701461 -23.0
-70.689005 42.700477 -22.7
-70.688980 42.699986 -22.4
-70.688999 42.699497 -22.3
-70.689019 42.699008 -22.1
-70.689038 42.698516 -21.6
-70.689060 42.698025 -21.5
-70.689019 42.697533 -21.2
-70.688974 42.697038 -20.8
-70.688930 42.696544 -20.6
-70.688883 42.696047 -20.2
-70.688872 42.695541 -20.0
-70.688858 42.695036 -19.6
-70.688830 42.694022 -19.0
-70.688699 42.692555 -18.0
-70.688655 42.692066 -17.7
-70.688610 42.691577 -17.4
-70.688563 42.691086 -16.9
-70.688555 42.690586 -16.6
-70.688544 42.690086 -16.4
-70.688533 42.689586 -16.0
-70.688522 42.689086 -15.7
-70.688510 42.688586 -15.4
-70.688499 42.688083 -15.2
-70.688463 42.687577 -14.9
-70.688385 42.686561 -14.5
-70.688347 42.686052 -14.0
-70.688308 42.685544 -13.8
-70.688266 42.685036 -13.4
-70.688241 42.684536 -13.2
-70.688213 42.684033 -13.0
-70.688185 42.683530 -12.7
-70.688157 42.683027 -12.6
-70.688129 42.682525 -12.3
-70.688101 42.682019 -11.9
-70.688065 42.681519 -11.6
-70.688026 42.681016 -11.4
-70.687948 42.680013 -10.8
-70.687909 42.679511 -10.8
-70.687832 42.678497 -10.0
-70.687793 42.677983 -9.8
-70.687754 42.677469 -9.6
-70.687715 42.676955 -9.5
-70.687676 42.676441 -9.2
-70.687634 42.675925 -9.0
-70.687615 42.675419 -8.8
-70.687593 42.674911 -8.7
-70.687573 42.674402 -8.4
-70.687551 42.673894 -8.2
-70.687532 42.673386 -8.0
-70.687509 42.672362 -7.7
-70.687509 42.671328 -7.3
-70.687512 42.670809 -7.1
-70.688548 42.671114 -7.1
-70.688565 42.671617 -7.3
-70.688615 42.673133 -7.9
-70.688632 42.673638 -8.1
-70.688648 42.674144 -8.2
-70.688640 42.674644 -8.5
-70.688632 42.675144 -8.7
-70.688623 42.675644 -8.8
-70.688612 42.676147 -8.9
-70.688598 42.676641 -9.1
-70.688584 42.677138 -9.4
-70.688568 42.677636 -9.6
-70.688554 42.678133 -9.8
-70.688537 42.678630 -10.0
-70.688523 42.679641 -10.6
-70.688529 42.680158 -10.9
-70.688532 42.680675 -11.0
-70.688537 42.681191 -11.3
-70.688543 42.681708 -11.6
-70.688548 42.682225 -11.9
-70.688605 42.682719 -12.3
-70.688663 42.683216 -12.5
-70.688722 42.683711 -12.8
-70.688780 42.684208 -13.0
-70.688838 42.684705 -13.2
-70.688897 42.685202 -13.6
-70.688966 42.685725 -13.9
-70.689035 42.686250 -14.1
-70.689344 42.688858 -15.6
-70.690152 42.699683 -22.1
-70.690135 42.699202 -21.9
-70.690116 42.698722 -21.5
-70.690097 42.698238 -21.4
-70.690077 42.697747 -21.1
-70.690058 42.697252 -20.8
-70.690038 42.696758 -20.6
-70.690016 42.696263 -20.2
-70.689969 42.695758 -19.9
-70.689919 42.695252 -19.6
-70.689819 42.694238 -19.0
-70.689769 42.693730 -18.7
-70.689719 42.693222 -18.5
-70.689688 42.692725 -17.9
-70.689655 42.692227 -17.7
-70.689622 42.691730 -17.3
-70.689588 42.691230 -17.0
-70.689555 42.690733 -16.6
-70.689524 42.689733 -15.9
-70.689530 42.689230 -15.8
-70.689538 42.688225 -15.3
-70.689541 42.687722 -14.9
-70.689547 42.687219 -14.7
-70.689683 42.686258 -14.0
-70.689749 42.685777 -13.8
-70.689819 42.685294 -13.6
-70.689888 42.684813 -13.4
-70.689958 42.684330 -13.0
-70.690047 42.683858 -12.9
-70.690135 42.683383 -12.4
-70.690224 42.682911 -12.1
-70.690313 42.682436 -11.9
-70.690402 42.681961 -11.8
-70.690494 42.681486 -11.4
-70.690480 42.680977 -11.2
-70.690463 42.680466 -10.8
-70.690449 42.679955 -10.7
-70.690433 42.679444 -10.2
-70.690398 42.678422 -9.8
-70.690329 42.677919 -9.6
-70.690257 42.677413 -9.4
-70.690187 42.676908 -9.2
-70.690115 42.676402 -9.0
-70.690043 42.675897 -8.8
-70.689971 42.675388 -8.5
-70.689954 42.674877 -8.4
-70.689937 42.674363 -8.2
-70.689921 42.673850 -8.0
-70.689904 42.673336 -7.8
-70.689887 42.672822 -7.6
-70.689854 42.671794 -7.3
-70.689834 42.671278 -7.2
-70.691173 42.670911 -6.9
-70.691184 42.671402 -7.0
-70.691198 42.671897 -7.3
-70.691226 42.673380 -7.7
-70.691226 42.673877 -8.0
-70.691226 42.674375 -8.1
-70.691226 42.674872 -8.4
-70.691229 42.675372 -8.5
-70.691193 42.675863 -8.6
-70.691157 42.676355 -8.8
-70.691121 42.676850 -9.1
-70.691084 42.677341 -9.2
-70.691048 42.677836 -9.4
-70.691009 42.678330 -9.6
-70.690974 42.679313 -10.1
-70.690958 42.679805 -10.4
-70.690938 42.680297 -10.7
-70.690919 42.680788 -11.0
-70.690899 42.681280 -11.0
-70.690958 42.681761 -11.5
-70.691016 42.682244 -11.8
-70.691074 42.682725 -11.9
-70.691535 42.687088 -14.2
-70.691577 42.687572 -14.4
-70.691622 42.688058 -14.7
-70.691710 42.689030 -15.2
-70.691755 42.689516 -15.4
-70.691802 42.690005 -15.7
-70.691827 42.691016 -16.3
-70.691841 42.691522 -16.6
-70.691855 42.692027 -16.9
-70.691869 42.692533 -17.4
-70.691883 42.693041 -17.7
-70.691863 42.693547 -18.2
-70.691844 42.694052 -18.5
-70.691666 42.698138 -21.0
-70.691641 42.698652 -21.5
-70.691616 42.699166 -21.7
-70.691591 42.699680 -21.9
-70.691566 42.700197 -22.3
-70.680166 42.698352 -22.7
-70.680141 42.697877 -22.4
-70.680116 42.697402 -22.1
-70.680090 42.696927 -21.8
-70.680062 42.696450 -21.5
-70.680001 42.695983 -21.3
-70.679940 42.695516 -21.0
-70.679879 42.695050 -20.9
-70.679815 42.694580 -20.4
-70.679657 42.693558 -20.0
-70.679579 42.693047 -19.7
-70.679498 42.692533 -19.4
-70.679443 42.692047 -19.1
-70.679387 42.691558 -19.0
-70.679329 42.691069 -18.5
-70.679273 42.690580 -18.2
-70.679215 42.690088 -17.8
-70.679182 42.689605 -17.5
-70.679146 42.689122 -17.1
-70.679109 42.688638 -16.8
-70.679073 42.688152 -16.3
-70.679001 42.687183 -15.7
-70.678998 42.686675 -15.4
-70.678996 42.686163 -15.1
-70.678993 42.685652 -14.9
-70.678990 42.685141 -14.7
-70.679201 42.682216 -12.7
-70.679257 42.681741 -12.4
-70.679312 42.681266 -12.1
-70.679368 42.680791 -11.8
-70.679401 42.680288 -11.6
-70.679434 42.679786 -11.5
-70.679504 42.678777 -11.2
-70.679540 42.678275 -10.9
-70.679598 42.677286 -10.3
-70.679621 42.676800 -9.9
-70.679643 42.676314 -9.6
-70.679668 42.675828 -9.4
-70.679715 42.674853 -9.1
-70.679696 42.674364 -8.8
-70.679673 42.673873 -8.6
-70.679651 42.673381 -8.4
-70.679629 42.672889 -8.2
-70.679607 42.672398 -8.0
-70.679543 42.671412 -7.6
-70.679457 42.670417 -5.4
-70.679412 42.669920 -6.6
-70.679368 42.669423 -6.0
-70.679323 42.668926 -5.6
-70.678723 42.669770 -6.2
-70.678768 42.670264 -5.9
-70.678815 42.670759 -7.7
-70.678862 42.671253 -7.7
-70.678909 42.671748 -7.8
-70.678957 42.672242 -8.0
-70.679007 42.672739 -8.2
-70.679073 42.673228 -8.4
-70.679143 42.673720 -8.6
-70.679212 42.674212 -8.7
-70.679282 42.674703 -8.9
-70.679351 42.675195 -9.3
-70.679198 42.679111 -11.3
-70.678993 42.680083 -11.7
-70.678890 42.680569 -11.8
-70.678787 42.681055 -12.1
-70.678682 42.681544 -12.4
-70.678398 42.683025 -13.3
-70.678112 42.684511 -14.4
-70.678012 42.685016 -14.9
-70.677912 42.685522 -14.9
-70.677809 42.686027 -15.3
-70.677709 42.686533 -15.5
-70.677607 42.687038 -15.9
-70.677504 42.688038 -16.5
-70.677501 42.688530 -16.8
-70.677498 42.689025 -17.3
-70.677496 42.689516 -17.7
-70.677493 42.690011 -18.0
-70.677487 42.690505 -18.3
-70.677554 42.691005 -18.6
-70.677621 42.691505 -18.9
-70.677687 42.692005 -19.3
-70.677757 42.692505 -19.7
-70.677823 42.693005 -19.9
-70.677893 42.693508 -20.2
-70.677979 42.693994 -20.5
-70.678323 42.695938 -21.7
-70.678412 42.696427 -21.8
-70.678415 42.696947 -22.2
-70.678418 42.697469 -22.4
-70.678423 42.697991 -22.7
-70.678426 42.698513 -22.9
-70.678429 42.699036 -23.3
-70.678437 42.700080 -23.9
-70.678444 42.700602 -24.3
-70.679263 42.699758 -23.6
-70.679196 42.698813 -23.0
-70.679162 42.698341 -22.7
-70.679126 42.697866 -22.5
-70.679109 42.697388 -22.3
-70.679090 42.696908 -22.1
-70.679071 42.696430 -21.8
-70.679051 42.695950 -21.6
-70.679032 42.695472 -21.2
-70.678943 42.693533 -20.1
-70.678918 42.693047 -19.8
-70.678893 42.692561 -19.4
-70.678868 42.692072 -19.2
-70.678871 42.691577 -18.7
-70.678876 42.691080 -18.5
-70.678554 42.685775 -15.1
-70.678490 42.685286 -14.9
-70.678426 42.684797 -14.6
-70.678359 42.684305 -14.3
-70.678296 42.683816 -14.0
-70.678229 42.683325 -13.5
-70.678201 42.681866 -12.6
-70.678193 42.681380 -12.4
-70.678182 42.680894 -12.2
-70.678171 42.680405 -11.9
-70.678146 42.679913 -11.6
-70.678118 42.679419 -11.4
-70.678093 42.678925 -11.3
-70.678065 42.678430 -11.1
-70.678009 42.677441 -10.6
-70.677998 42.676967 -10.3
-70.677987 42.676492 -10.2
-70.677976 42.676017 -9.8
-70.677965 42.675542 -9.6
-70.677954 42.675067 -9.3
-70.677940 42.674589 -9.1
-70.677912 42.674114 -8.9
-70.677882 42.673639 -8.8
-70.677854 42.673162 -8.7
-70.677823 42.672687 -8.5
-70.677796 42.672209 -8.3
-70.677765 42.671731 -8.0
-70.677726 42.671256 -7.5
-70.677643 42.670303 -6.8
-70.677601 42.669826 -5.8
-70.676651 42.669651 -6.1
-70.676746 42.670131 -6.5
-70.676843 42.670612 -7.1
-70.677040 42.671578 -8.0
-70.677134 42.672539 -8.5
