-70.903564 42.437069 -18.2
-70.904264 42.437083 -17.6
-70.904964 42.437094 -17.1
-70.902759 42.437611 -18.7
-70.903506 42.437636 -18.1
-70.904250 42.437658 -17.5
-70.904998 42.437680 -16.9
-70.902609 42.438100 -18.9
-70.903356 42.438078 -18.3
-70.904100 42.438058 -17.6
-70.904848 42.438036 -17.3
-70.902545 42.438947 -19.1
-70.903281 42.438955 -18.5
-70.904017 42.438964 -17.9
-70.904753 42.438975 -17.6
-70.905278 42.436241 -16.9
-70.906025 42.436230 -16.0
-70.906770 42.436219 -15.4
-70.907514 42.436208 -15.1
-70.905623 42.436655 -16.7
-70.905664 42.437108 -16.5
-70.905623 42.437172 -16.7
-70.906364 42.437122 -15.9
-70.907782 42.437136 -14.8
-70.905623 42.437689 -16.7
-70.906486 42.437722 -15.9
-70.907232 42.437741 -15.3
-70.905595 42.438016 -16.7
-70.907087 42.438005 -14.3
-70.905489 42.438983 -17.0
-70.905628 42.438728 -16.7
-70.906974 42.438964 -12.1
-70.907715 42.438933 -15.1
-70.910468 42.436211 -12.3
-70.908501 42.437133 -14.4
-70.909221 42.437133 -13.9
-70.909940 42.437133 -13.0
-70.907976 42.437761 -14.8
-70.908718 42.437780 -14.4
-70.909462 42.437800 -13.6
-70.907832 42.438014 -15.3
-70.908576 42.438025 -14.7
-70.909318 42.438033 -14.1
-70.910062 42.438041 -13.1
-70.908460 42.438905 -14.8
-70.909204 42.438875 -14.8
-70.909949 42.438847 -13.6
-70.911204 42.436216 -11.7
-70.911940 42.436219 -11.1
-70.910660 42.437133 -12.4
-70.912082 42.437108 -11.0
-70.912785 42.437083 -10.4
-70.910946 42.437822 -11.9
-70.911685 42.437828 -11.3
-70.912421 42.437830 -10.6
-70.913160 42.437833 -10.3
-70.911537 42.438058 -11.8
-70.912265 42.438061 -11.2
-70.912996 42.438066 -10.7
-70.911424 42.438819 -12.1
-70.912157 42.438822 -11.6
-70.912887 42.438825 -10.9
-70.913926 42.436605 -9.5
-70.914190 42.437036 -9.6
-70.914893 42.437011 -9.0
-70.913487 42.437058 -9.9
-70.913901 42.437150 -9.6
-70.913899 42.437836 -9.7
-70.915385 42.437830 -8.8
-70.916132 42.437825 -8.4
-70.913724 42.438072 -10.0
-70.914454 42.438075 -9.7
-70.915924 42.438080 -8.5
-70.913865 42.438233 -9.8
-70.913618 42.438828 -10.6
-70.913854 42.438772 -9.9
-70.914351 42.438830 -10.0
-70.915774 42.438850 -9.1
-70.900081 42.439355 -20.3
-70.900814 42.439358 -19.7
-70.901545 42.439361 -19.4
-70.899814 42.440136 -20.3
-70.900528 42.440136 -20.0
-70.901242 42.440136 -19.7
-70.901956 42.440133 -19.1
-70.899870 42.440878 -20.3
-70.900584 42.440889 -20.0
-70.901298 42.440900 -19.5
-70.900378 42.441716 -19.8
-70.901109 42.441725 -19.5
-70.901839 42.441730 -19.2
-70.902278 42.439364 -19.1
-70.903011 42.439366 -18.5
-70.904478 42.439372 -17.6
-70.903386 42.440153 -18.4
-70.904103 42.440172 -17.8
-70.904820 42.440191 -17.5
-70.902731 42.440911 -18.7
-70.903448 42.440911 -18.4
-70.904167 42.440908 -17.8
-70.904886 42.440908 -17.5
-70.902570 42.441739 -18.9
-70.903300 42.441744 -18.5
-70.904775 42.441758 -17.6
-70.905634 42.439253 -16.7
-70.905211 42.439375 -17.2
-70.905948 42.439378 -16.7
-70.906682 42.439380 -16.4
-70.907415 42.439383 -15.5
-70.905636 42.439775 -16.7
-70.905536 42.440214 -16.9
-70.905642 42.440297 -16.7
-70.906254 42.440233 -16.6
-70.907687 42.440264 -15.9
-70.905604 42.440908 -16.9
-70.905649 42.440822 -16.7
-70.907032 42.440908 -16.0
-70.907740 42.440911 -15.7
-70.908882 42.439389 -14.9
-70.909615 42.439391 -14.0
-70.910346 42.439394 -13.1
-70.908407 42.440272 -14.7
-70.909124 42.440283 -14.4
-70.909840 42.440291 -13.5
-70.910560 42.440303 -13.2
-70.908449 42.440914 -15.3
-70.909157 42.440914 -14.4
-70.909868 42.440916 -13.5
-70.911079 42.439397 -12.5
-70.911810 42.439400 -11.9
-70.913274 42.439394 -10.6
-70.911996 42.440314 -12.0
-70.912712 42.440314 -11.4
-70.911287 42.440939 -12.9
-70.911999 42.440961 -12.3
-70.912712 42.440980 -11.7
-70.913840 42.439311 -10.1
-70.914007 42.439386 -10.3
-70.914740 42.439378 -9.7
-70.915474 42.439369 -9.1
-70.913829 42.439850 -10.2
-70.913432 42.440316 -10.7
-70.914149 42.440316 -10.4
-70.914865 42.440319 -9.8
-70.913818 42.440386 -10.4
-70.913424 42.441003 -11.1
-70.914135 42.441022 -10.4
-70.915568 42.441053 -9.5
-70.913782 42.441472 -11.0
-70.899667 42.442503 -20.0
-70.900375 42.442516 -19.7
-70.901084 42.442530 -19.4
-70.899917 42.443733 -19.5
-70.900639 42.443728 -19.3
-70.902064 42.443714 -18.5
-70.900564 42.444169 -19.2
-70.901281 42.444166 -18.6
-70.901995 42.444166 -18.6
-70.902509 42.442569 -18.5
-70.903228 42.442589 -18.1
-70.903948 42.442611 -17.8
-70.904665 42.442633 -17.5
-70.902770 42.443705 -18.4
-70.903473 42.443694 -17.8
-70.904179 42.443686 -17.8
-70.904882 42.443675 -16.9
-70.902709 42.444164 -18.3
-70.903425 42.444164 -17.7
-70.904860 42.444166 -16.8
-70.905521 42.441766 -17.0
-70.905649 42.441866 -16.9
-70.906265 42.441775 -16.4
-70.907010 42.441780 -16.1
-70.907754 42.441789 -15.8
-70.905640 42.442386 -16.6
-70.905385 42.442655 -17.1
-70.906812 42.442678 -16.0
-70.907518 42.442678 -15.4
-70.905635 42.442908 -16.6
-70.905629 42.443428 -16.6
-70.906312 42.443680 -15.9
-70.907035 42.443694 -15.6
-70.905624 42.443950 -16.6
-70.907760 42.443708 -15.0
-70.905576 42.444172 -16.5
-70.906293 42.444178 -16.2
-70.907012 42.444183 -15.9
-70.907729 42.444189 -15.3
-70.909224 42.441797 -14.6
-70.909949 42.441800 -14.1
-70.908226 42.442678 -15.1
-70.908935 42.442678 -14.8
-70.909640 42.442678 -14.2
-70.908482 42.443722 -14.7
-70.909207 42.443733 -14.4
-70.909168 42.444203 -14.1
-70.909887 42.444208 -13.7
-70.910674 42.441803 -13.7
-70.911401 42.441805 -13.4
-70.912126 42.441808 -12.8
-70.911065 42.442680 -13.3
-70.911779 42.442683 -13.0
-70.912496 42.442683 -12.5
-70.913212 42.442686 -11.9
-70.910651 42.443741 -13.5
-70.911374 42.443736 -13.2
-70.912093 42.443730 -12.6
-70.912815 42.443722 -12.3
-70.910607 42.444216 -13.4
-70.911329 42.444222 -12.8
-70.912049 42.444230 -12.5
-70.913590 42.441819 -11.6
-70.913757 42.442019 -11.3
-70.914326 42.441825 -11.0
-70.915065 42.441830 -10.3
-70.915804 42.441839 -9.7
-70.913735 42.442566 -11.3
-70.913926 42.442686 -11.4
-70.915360 42.442689 -9.8
-70.916074 42.442691 -9.5
-70.913712 42.443114 -11.3
-70.913687 42.443661 -11.5
-70.914974 42.443689 -10.5
-70.915690 42.443666 -9.8
-70.913537 42.443716 -11.4
-70.913487 42.444239 -11.3
-70.914207 42.444241 -10.9
-70.914929 42.444244 -10.0
-70.915649 42.444247 -9.7
-70.900003 42.444897 -19.5
-70.901420 42.444875 -18.6
-70.902131 42.444861 -18.5
-70.899945 42.445475 -19.1
-70.900656 42.445480 -18.8
-70.901370 42.445483 -18.5
-70.902081 42.445489 -18.2
-70.900011 42.445933 -19.0
-70.900745 42.445933 -18.7
-70.901475 42.445936 -18.1
-70.902209 42.445936 -18.1
-70.899736 42.446364 -19.1
-70.900448 42.446364 -18.7
-70.901161 42.446366 -18.4
-70.901873 42.446366 -17.8
-70.899814 42.447191 -18.6
-70.900553 42.447222 -18.5
-70.901289 42.447255 -18.0
-70.902842 42.444850 -18.0
-70.903553 42.444836 -17.6
-70.904265 42.444822 -17.0
-70.903510 42.445497 -17.3
-70.904226 42.445500 -17.0
-70.904943 42.445503 -16.7
-70.903660 42.445922 -17.2
-70.904379 42.445903 -16.6
-70.902584 42.446366 -17.8
-70.904004 42.446378 -16.9
-70.904707 42.446386 -16.6
-70.902751 42.447300 -17.4
-70.903476 42.447314 -17.1
-70.905612 42.445003 -16.3
-70.905687 42.444825 -16.4
-70.906401 42.444839 -15.8
-70.907112 42.444853 -15.5
-70.905657 42.445503 -16.4
-70.905610 42.445536 -16.3
-70.906374 42.445505 -15.8
-70.907804 42.445500 -14.8
-70.905096 42.445886 -16.6
-70.905812 42.445866 -15.9
-70.906532 42.445850 -15.6
-70.905607 42.446069 -16.0
-70.905412 42.446394 -16.3
-70.906115 42.446403 -15.7
-70.906821 42.446411 -15.4
-70.905604 42.446603 -16.0
-70.905599 42.447133 -16.0
-70.907826 42.444866 -15.0
-70.908540 42.444880 -14.7
-70.909974 42.444894 -13.7
-70.908521 42.445491 -14.5
-70.909237 42.445483 -13.9
-70.909954 42.445475 -13.6
-70.907990 42.445833 -14.7
-70.908729 42.445836 -14.1
-70.909468 42.445839 -13.8
-70.910207 42.445839 -12.9
-70.908243 42.446430 -14.5
-70.908962 42.446444 -13.9
-70.909679 42.446455 -13.3
-70.910399 42.446469 -12.6
-70.910696 42.444894 -13.4
-70.911418 42.444894 -12.8
-70.912140 42.444894 -12.2
-70.912862 42.444894 -11.6
-70.910671 42.445464 -13.0
-70.912101 42.445444 -12.2
-70.912818 42.445433 -11.6
-70.910946 42.445841 -12.6
-70.912415 42.445830 -11.7
-70.913143 42.445819 -11.4
-70.911118 42.446480 -12.3
-70.912546 42.446500 -11.5
-70.913257 42.446508 -10.9
-70.913635 42.444747 -11.0
-70.914296 42.444916 -10.7
-70.915007 42.444944 -10.4
-70.915715 42.444969 -9.7
-70.913604 42.445283 -10.9
-70.913532 42.445425 -11.2
-70.914249 42.445414 -10.6
-70.913576 42.445822 -10.9
-70.913871 42.445805 -10.8
-70.914599 42.445791 -10.5
-70.915326 42.445780 -10.1
-70.913546 42.446358 -10.6
-70.913968 42.446514 -10.6
-70.914679 42.446519 -10.2
-70.915390 42.446528 -9.6
-70.913515 42.446897 -10.6
-70.900867 42.447683 -18.5
-70.901561 42.447678 -17.9
-70.902256 42.447672 -17.6
-70.899917 42.448439 -18.4
-70.900648 42.448447 -18.1
-70.901381 42.448453 -17.8
-70.899642 42.449089 -18.4
-70.900359 42.449100 -17.8
-70.901078 42.449108 -17.8
-70.901796 42.449119 -17.2
-70.899684 42.449600 -18.0
-70.900425 42.449600 -17.7
-70.901167 42.449597 -17.4
-70.901910 42.449597 -17.1
-70.904201 42.447325 -16.4
-70.904926 42.447336 -16.1
-70.902951 42.447666 -17.3
-70.903649 42.447661 -17.0
-70.902857 42.448453 -16.9
-70.903599 42.448444 -16.6
-70.904340 42.448436 -16.2
-70.902515 42.449128 -16.9
-70.903940 42.449144 -16.4
-70.904649 42.449150 -16.1
-70.903385 42.449605 -16.2
-70.904115 42.449614 -15.9
-70.904846 42.449625 -15.6
-70.905651 42.447350 -15.8
-70.907104 42.447366 -14.9
-70.905060 42.447669 -16.1
-70.905774 42.447680 -15.5
-70.906487 42.447691 -15.1
-70.907204 42.447705 -14.8
-70.905082 42.448425 -15.6
-70.905582 42.448194 -15.4
-70.905824 42.448416 -15.3
-70.907293 42.448397 -14.4
-70.905568 42.448722 -15.4
-70.905357 42.449158 -15.5
-70.905551 42.449250 -15.4
-70.906062 42.449164 -14.8
-70.906771 42.449172 -14.5
-70.905576 42.449633 -15.0
-70.905537 42.449778 -15.1
-70.906307 42.449641 -14.7
-70.907782 42.449669 -13.7
-70.907835 42.447372 -14.3
-70.908562 42.447380 -13.7
-70.909293 42.447386 -13.4
-70.910021 42.447391 -12.8
-70.907918 42.447716 -14.2
-70.909343 42.447741 -13.4
-70.910051 42.447755 -12.8
-70.908021 42.448389 -13.8
-70.908749 42.448378 -13.5
-70.909476 42.448366 -12.9
-70.910204 42.448358 -12.6
-70.908204 42.449189 -13.3
-70.908929 42.449197 -13.0
-70.909657 42.449205 -12.4
-70.910382 42.449214 -12.0
-70.908529 42.449686 -12.8
-70.909274 42.449705 -12.5
-70.910021 42.449722 -11.9
-70.911487 42.447391 -11.9
-70.912224 42.447386 -11.2
-70.912960 42.447380 -10.9
-70.910760 42.447769 -12.2
-70.911468 42.447783 -11.8
-70.912176 42.447794 -11.2
-70.911679 42.448366 -11.2
-70.912424 42.448386 -10.9
-70.913168 42.448405 -10.3
-70.911110 42.449225 -11.7
-70.912560 42.449239 -10.8
-70.913285 42.449247 -10.2
-70.910768 42.449741 -11.6
-70.912243 42.449772 -10.6
-70.912974 42.449786 -10.3
-70.913699 42.447372 -10.3
-70.914435 42.447366 -9.7
-70.915924 42.447350 -8.7
-70.913612 42.447825 -10.3
-70.914340 42.447839 -10.0
-70.915068 42.447853 -9.4
-70.915799 42.447869 -8.7
-70.913465 42.447980 -10.2
-70.913912 42.448428 -9.7
-70.913443 42.448525 -10.0
-70.914657 42.448447 -9.4
-70.916146 42.448480 -8.2
-70.913421 42.449072 -9.9
-70.914012 42.449253 -9.9
-70.914737 42.449261 -9.3
-70.915462 42.449266 -8.7
-70.913401 42.449616 -9.9
-70.913704 42.449800 -9.7
-70.914437 42.449814 -9.4
-70.915168 42.449828 -9.1
-70.916724 42.434219 -7.5
-70.917415 42.434178 -7.2
-70.918110 42.434133 -6.9
-70.918804 42.434091 -6.5
-70.916649 42.435000 -7.8
-70.917401 42.434958 -7.2
-70.918151 42.434916 -6.9
-70.918904 42.434875 -6.6
-70.916846 42.435486 -7.8
-70.917549 42.435475 -7.2
-70.916432 42.436133 -8.0
-70.917921 42.436100 -7.1
-70.918660 42.436086 -6.8
-70.921615 42.433975 -5.3
-70.919499 42.434047 -6.3
-70.920904 42.433989 -5.7
-70.921143 42.434772 -5.6
-70.919657 42.434833 -6.2
-70.918962 42.435469 -6.6
-70.919674 42.435475 -6.4
-70.920385 42.435480 -5.9
-70.921099 42.435486 -5.6
-70.919401 42.436069 -6.4
-70.920140 42.436053 -6.1
-70.920879 42.436039 -5.8
-70.922329 42.433961 -5.0
-70.923040 42.433944 -4.9
-70.923221 42.433955 -4.8
-70.923754 42.433930 -4.7
-70.923226 42.434489 -4.8
-70.921876 42.434755 -5.3
-70.922612 42.434739 -5.1
-70.923346 42.434719 -5.0
-70.924079 42.434703 -4.7
-70.923229 42.435019 -5.0
-70.921810 42.435491 -5.6
-70.923212 42.435500 -5.0
-70.923235 42.435553 -5.2
-70.923904 42.435503 -4.7
-70.922354 42.436019 -5.5
-70.923090 42.436014 -5.2
-70.923237 42.436083 -5.2
-70.923826 42.436011 -4.8
-70.925171 42.433919 -4.3
-70.925874 42.433922 -4.1
-70.926576 42.433925 -3.8
-70.924815 42.434686 -4.4
-70.926257 42.434683 -4.1
-70.926968 42.434697 -3.7
-70.924596 42.435505 -4.7
-70.925285 42.435511 -4.4
-70.925976 42.435514 -4.1
-70.924562 42.436005 -4.7
-70.925299 42.436003 -4.5
-70.926768 42.436011 -4.2
-70.929860 42.433611 -2.0
-70.927282 42.433930 -3.5
-70.927985 42.433933 -3.2
-70.929379 42.433925 -2.2
-70.929174 42.434203 -2.7
-70.929715 42.433989 -2.0
-70.927676 42.434714 -3.4
-70.928387 42.434728 -2.8
-70.929774 42.434694 -2.2
-70.927382 42.435519 -3.7
-70.928093 42.435522 -3.4
-70.928807 42.435525 -2.7
-70.929521 42.435528 -2.7
-70.927499 42.436022 -4.2
-70.928229 42.436033 -3.6
-70.928960 42.436044 -3.0
-70.929729 42.436197 -0.7
-70.929993 42.436064 0.7
-70.930796 42.433555 -1.4
-70.930254 42.433772 -1.7
-70.930071 42.433914 -1.9
-70.930762 42.433903 -1.6
-70.931454 42.433891 -0.9
-70.932143 42.433883 0.0
-70.932360 42.433958 0.2
-70.931815 42.434147 -0.7
-70.932532 42.434200 0.7
-70.932735 42.434058 0.7
-70.930729 42.434530 -2.0
-70.931274 42.434339 -1.4
-70.932129 42.434483 0.7
-70.932332 42.434341 0.9
-70.930187 42.434719 -2.0
-70.930449 42.434647 -2.2
-70.931929 42.434622 0.7
-70.931726 42.434764 1.3
-70.931526 42.434905 -0.3
-70.931146 42.435250 -0.9
-70.930232 42.435530 -2.6
-70.930965 42.435455 -0.9
-70.930257 42.435928 -0.3
-70.930521 42.435794 0.1
-70.916304 42.436955 -8.1
-70.917012 42.436928 -7.8
-70.917721 42.436897 -7.3
-70.918429 42.436866 -7.0
-70.916879 42.437816 -7.9
-70.917629 42.437808 -7.6
-70.918376 42.437800 -7.1
-70.916665 42.438080 -8.2
-70.917404 42.438080 -7.7
-70.918146 42.438080 -7.3
-70.918885 42.438080 -7.0
-70.916465 42.438864 -8.4
-70.917157 42.438880 -8.1
-70.917846 42.438894 -7.8
-70.918537 42.438908 -7.5
-70.919137 42.436836 -6.9
-70.920554 42.436805 -6.2
-70.921262 42.436800 -5.9
-70.919124 42.437791 -6.8
-70.920599 42.437747 -6.4
-70.921326 42.437714 -6.1
-70.920349 42.438069 -6.4
-70.921071 42.438055 -6.2
-70.919976 42.438916 -6.6
-70.920724 42.438908 -6.6
-70.921471 42.438900 -6.3
-70.921971 42.436797 -5.6
-70.922679 42.436794 -5.5
-70.923387 42.436789 -5.0
-70.923237 42.437136 -5.3
-70.924207 42.437589 -5.1
-70.922054 42.437680 -5.7
-70.922779 42.437644 -5.5
-70.923235 42.437661 -5.5
-70.921796 42.438044 -6.1
-70.922518 42.438030 -5.8
-70.923240 42.438019 -5.6
-70.923229 42.438183 -5.5
-70.923224 42.438705 -5.5
-70.922215 42.438894 -6.0
-70.922962 42.438886 -5.6
-70.924429 42.438878 -5.3
-70.924812 42.436797 -4.7
-70.925529 42.436808 -4.7
-70.926243 42.436816 -4.7
-70.926960 42.436828 -5.0
-70.924907 42.437566 -4.9
-70.925607 42.437544 -4.8
-70.926307 42.437522 -4.8
-70.927007 42.437500 -5.1
-70.924682 42.438019 -5.1
-70.925401 42.438033 -4.9
-70.926118 42.438044 -4.8
-70.926837 42.438058 -4.8
-70.925146 42.438878 -5.0
-70.925862 42.438878 -5.0
-70.926582 42.438878 -5.1
-70.929199 42.436466 -1.8
-70.929462 42.436330 -1.6
-70.928935 42.436600 -1.2
-70.927674 42.436839 -3.5
-70.928476 42.436925 -0.3
-70.928282 42.437114 -0.7
-70.927557 42.438072 -5.7
-70.929260 42.438336 -2.5
-70.929576 42.438330 -1.5
-70.929896 42.438325 -1.2
-70.927299 42.438878 -4.8
-70.928410 42.438883 -2.6
-70.928754 42.438889 -5.1
-70.929493 42.438903 -3.9
-70.930212 42.438316 -1.2
-70.930529 42.438311 0.1
-70.930849 42.438305 -0.3
-70.931165 42.438297 0.1
-70.931482 42.438291 0.4
-70.932235 42.438222 1.7
-70.932018 42.438253 1.0
-70.932451 42.438189 1.7
-70.932668 42.438158 1.2
-70.930232 42.438914 -3.9
-70.930968 42.438928 -3.3
-70.931707 42.438939 -2.6
-70.932137 42.438944 -2.6
-70.932632 42.438800 -1.6
-70.916207 42.439358 -8.7
-70.917660 42.439369 -7.8
-70.918382 42.439386 -7.2
-70.916310 42.440322 -8.9
-70.917035 42.440325 -8.3
-70.917762 42.440328 -8.0
-70.918487 42.440330 -7.5
-70.916287 42.441061 -9.2
-70.917010 42.441069 -8.6
-70.917729 42.441078 -8.0
-70.918449 42.441089 -7.3
-70.919101 42.439403 -6.9
-70.919824 42.439422 -6.7
-70.920543 42.439439 -6.4
-70.919212 42.440330 -7.0
-70.920657 42.440339 -6.4
-70.921376 42.440344 -6.0
-70.919896 42.441116 -6.7
-70.920621 42.441136 -6.4
-70.921346 42.441155 -6.1
-70.923221 42.439228 -5.5
-70.921987 42.439478 -6.0
-70.922712 42.439500 -5.7
-70.923437 42.439522 -5.4
-70.924162 42.439544 -5.4
-70.923987 42.439741 -5.5
-70.922096 42.440350 -6.0
-70.922815 42.440355 -5.7
-70.923196 42.440261 -5.5
-70.923535 42.440361 -5.5
-70.924254 42.440366 -5.4
-70.923635 42.440422 -5.6
-70.924349 42.440419 -5.3
-70.923176 42.440769 -5.5
-70.922071 42.441175 -6.1
-70.922796 42.441194 -5.7
-70.923426 42.441030 -5.5
-70.924093 42.441064 -5.5
-70.923157 42.441280 -5.5
-70.923521 42.441214 -5.5
-70.924249 42.441233 -5.3
-70.924676 42.439747 -5.5
-70.925365 42.439755 -5.1
-70.926054 42.439761 -4.8
-70.926743 42.439766 -4.8
-70.925062 42.440416 -5.0
-70.925776 42.440411 -5.0
-70.926490 42.440408 -4.7
-70.924760 42.441094 -5.0
-70.925429 42.441128 -5.0
-70.926096 42.441158 -4.7
-70.925218 42.441286 -5.0
-70.925885 42.441330 -4.7
-70.926554 42.441375 -4.7
-70.927224 42.441419 -4.7
-70.927429 42.439772 -4.5
-70.928851 42.439800 -4.2
-70.929582 42.439819 -3.9
-70.927926 42.440400 -4.4
-70.928649 42.440394 -4.1
-70.929368 42.440391 -3.7
-70.927482 42.441208 -4.4
-70.927890 42.441464 -4.4
-70.928204 42.441222 -4.1
-70.928924 42.441239 -4.1
-70.929643 42.441255 -3.8
-70.929260 42.441525 -3.7
-70.929962 42.441541 -3.7
-70.931151 42.439239 -2.9
-70.931646 42.439091 -2.3
-70.930660 42.439383 -2.9
-70.930387 42.439761 -3.2
-70.930312 42.439841 -3.6
-70.931046 42.439861 -3.0
-70.931776 42.439883 -2.7
-70.930376 42.440297 -3.2
-70.930090 42.440386 -3.4
-70.930812 42.440380 -3.1
-70.932251 42.440380 -2.8
-70.930365 42.440830 -3.4
-70.930362 42.441272 -3.5
-70.930357 42.441366 -3.2
-70.931790 42.441258 -2.9
-70.932496 42.441228 -2.6
-70.930662 42.441558 -3.4
-70.931365 42.441575 -3.1
-70.932065 42.441591 -2.8
-70.916540 42.441844 -9.1
-70.918010 42.441847 -8.2
-70.918737 42.441841 -7.6
-70.916790 42.442694 -9.2
-70.917504 42.442694 -8.6
-70.918221 42.442697 -7.7
-70.916404 42.443641 -9.2
-70.917121 42.443619 -8.9
-70.917835 42.443597 -8.9
-70.916368 42.444250 -9.4
-70.917807 42.444258 -8.4
-70.918529 42.444264 -8.1
-70.919468 42.441839 -7.0
-70.920199 42.441833 -6.7
-70.920929 42.441828 -6.4
-70.919660 42.442711 -6.7
-70.920382 42.442722 -6.6
-70.921107 42.442736 -6.3
-70.919265 42.443569 -7.0
-70.919982 42.443561 -6.4
-70.920696 42.443555 -6.1
-70.921412 42.443550 -6.1
-70.919249 42.444269 -6.9
-70.919968 42.444275 -6.3
-70.920687 42.444283 -6.3
-70.922382 42.441819 -5.7
-70.923104 42.441816 -5.4
-70.923137 42.441789 -5.5
-70.923824 42.441814 -5.4
-70.923115 42.442300 -5.5
-70.921829 42.442747 -6.1
-70.922551 42.442761 -5.8
-70.924026 42.442786 -5.2
-70.923101 42.443322 -5.5
-70.922126 42.443544 -6.1
-70.923568 42.443522 -5.5
-70.924296 42.443505 -5.2
-70.923107 42.443836 -5.5
-70.922118 42.444289 -6.0
-70.922826 42.444289 -5.7
-70.923110 42.444350 -5.5
-70.923537 42.444289 -5.4
-70.924246 42.444289 -5.0
-70.924546 42.441811 -5.1
-70.924668 42.442186 -5.0
-70.925365 42.442200 -5.0
-70.926065 42.442214 -4.7
-70.926762 42.442228 -4.4
-70.924776 42.442797 -5.0
-70.925460 42.442686 -5.0
-70.925526 42.442808 -4.8
-70.926149 42.442697 -4.7
-70.926835 42.442708 -4.4
-70.924907 42.443369 -5.0
-70.925626 42.443364 -4.7
-70.926346 42.443361 -4.7
-70.927065 42.443355 -4.4
-70.925024 42.443489 -4.8
-70.924818 42.444105 -4.9
-70.925532 42.444111 -4.6
-70.926246 42.444119 -4.6
-70.926962 42.444128 -4.3
-70.924954 42.444291 -4.7
-70.927460 42.442244 -4.4
-70.928874 42.442278 -4.1
-70.929590 42.442294 -3.8
-70.927524 42.442719 -4.4
-70.928912 42.442755 -3.9
-70.929615 42.442780 -3.7
-70.927785 42.443353 -4.1
-70.928504 42.443350 -4.1
-70.929940 42.443350 -3.7
-70.927676 42.444133 -4.3
-70.928390 42.444141 -4.0
-70.929824 42.444158 -3.4
-70.930307 42.442314 -3.5
-70.930374 42.442447 -3.2
-70.931021 42.442333 -3.2
-70.931737 42.442353 -2.9
-70.930318 42.442805 -3.4
-70.931024 42.442830 -3.1
-70.931726 42.442855 -2.8
-70.930401 42.442994 -3.2
-70.930657 42.443358 -3.4
-70.931371 42.443364 -3.1
-70.932087 42.443369 -2.8
-70.932804 42.443375 -2.5
-70.930429 42.443539 -3.2
-70.930543 42.444169 -3.4
-70.930457 42.444086 -3.2
-70.931260 42.444178 -3.1
-70.931979 42.444189 -2.8
-70.932696 42.444197 -2.5
-70.916426 42.444994 -9.7
-70.917137 42.445019 -9.1
-70.918554 42.445064 -7.9
-70.916796 42.445766 -8.9
-70.917537 42.445766 -8.6
-70.918276 42.445766 -8.0
-70.916815 42.446547 -8.7
-70.917529 42.446561 -8.4
-70.918240 42.446572 -7.8
-70.918182 42.447316 -7.5
-70.918932 42.447305 -7.2
-70.919260 42.445086 -7.3
-70.919965 42.445105 -6.7
-70.920674 42.445128 -6.4
-70.921379 42.445147 -6.1
-70.919018 42.445766 -7.3
-70.919760 42.445766 -6.7
-70.921235 42.445764 -6.1
-70.918954 42.446586 -7.5
-70.919668 42.446600 -6.9
-70.921074 42.446628 -6.2
-70.920421 42.447286 -6.3
-70.921157 42.447278 -6.0
-70.923115 42.444866 -5.5
-70.924260 42.445014 -4.9
-70.922787 42.445178 -5.8
-70.923490 42.445189 -5.5
-70.924190 42.445200 -5.1
-70.923118 42.445380 -5.5
-70.921968 42.445761 -5.8
-70.922704 42.445758 -5.8
-70.923440 42.445755 -5.1
-70.924174 42.445753 -4.8
-70.923121 42.446416 -5.3
-70.923410 42.446466 -5.2
-70.924135 42.446461 -5.2
-70.921768 42.446641 -5.9
-70.922460 42.446658 -5.6
-70.923154 42.446672 -5.3
-70.923121 42.446939 -5.2
-70.923860 42.446866 -5.3
-70.921893 42.447272 -5.9
-70.922629 42.447264 -5.6
-70.923365 42.447255 -5.3
-70.924940 42.445047 -4.9
-70.925624 42.445080 -4.6
-70.924893 42.445208 -4.8
-70.926304 42.445114 -4.3
-70.926985 42.445150 -4.3
-70.924546 42.445903 -4.9
-70.925260 42.445905 -4.6
-70.925971 42.445911 -4.6
-70.926685 42.445916 -4.3
-70.924860 42.446455 -4.9
-70.925585 42.446447 -4.6
-70.926307 42.446441 -4.6
-70.924562 42.446872 -4.9
-70.925262 42.446878 -4.6
-70.925965 42.446883 -4.6
-70.928371 42.445197 -3.7
-70.929074 42.445214 -3.7
-70.929779 42.445230 -3.4
-70.927399 42.445922 -4.3
-70.928824 42.445944 -3.7
-70.929535 42.445961 -3.4
-70.927746 42.446436 -4.0
-70.928457 42.446436 -4.0
-70.929171 42.446433 -3.7
-70.929882 42.446433 -3.4
-70.927349 42.446919 -4.3
-70.928032 42.446953 -4.0
-70.928715 42.446986 -3.7
-70.929399 42.447016 -3.4
-70.930485 42.444633 -3.2
-70.930485 42.445244 -3.1
-70.931190 42.445261 -2.8
-70.932601 42.445255 -2.2
-70.930499 42.445711 -2.9
-70.930246 42.445978 -3.4
-70.930960 42.445994 -3.1
-70.931671 42.446014 -2.8
-70.930596 42.446433 -3.1
-70.930485 42.446244 -2.9
-70.932004 42.446428 -2.4
-70.932701 42.446422 -2.1
-70.930471 42.446775 -2.9
-70.930079 42.447050 -3.1
-70.930457 42.447308 -3.0
-70.931465 42.447091 -2.5
-70.932165 42.447103 -2.2
-70.916676 42.447339 -8.4
-70.917429 42.447328 -7.8
-70.916526 42.447883 -8.4
-70.917965 42.447911 -7.5
-70.918679 42.447922 -7.2
-70.916887 42.448494 -7.9
-70.917629 42.448511 -7.6
-70.918374 42.448525 -6.9
-70.916904 42.449283 -7.5
-70.917624 42.449294 -7.2
-70.918340 42.449305 -6.9
-70.916643 42.449864 -7.2
-70.917387 42.449889 -6.9
-70.918132 42.449911 -6.9
-70.918876 42.449933 -6.6
-70.919390 42.447933 -6.9
-70.920101 42.447944 -6.2
-70.920812 42.447955 -6.2
-70.919115 42.448541 -6.6
-70.920601 42.448566 -6.0
-70.921343 42.448580 -5.7
-70.919057 42.449314 -6.9
-70.919776 42.449325 -6.6
-70.921207 42.449322 -5.9
-70.919621 42.449955 -6.2
-70.921101 42.449980 -5.6
-70.923118 42.447458 -5.4
-70.924104 42.447553 -5.3
-70.922243 42.447955 -5.6
-70.922960 42.447944 -5.4
-70.923118 42.447980 -5.2
-70.923676 42.447933 -5.1
-70.924396 42.447922 -5.1
-70.923912 42.448336 -5.0
-70.922085 42.448591 -5.7
-70.922826 42.448603 -5.4
-70.923115 42.448503 -5.2
-70.923571 42.448614 -5.1
-70.923768 42.448986 -5.3
-70.921918 42.449308 -5.6
-70.922632 42.449294 -5.3
-70.923346 42.449283 -5.3
-70.923118 42.449539 -5.2
-70.924057 42.449269 -5.0
-70.923337 42.449741 -5.3
-70.924032 42.449747 -5.0
-70.921837 42.449983 -5.6
-70.922574 42.449983 -5.3
-70.923307 42.449983 -5.3
-70.923124 42.450055 -5.2
-70.924824 42.447550 -5.0
-70.925543 42.447544 -4.7
-70.926265 42.447541 -4.4
-70.926985 42.447539 -4.4
-70.924618 42.448333 -5.0
-70.925324 42.448333 -4.7
-70.926029 42.448333 -4.7
-70.926735 42.448333 -4.4
-70.924507 42.449000 -5.0
-70.925249 42.449014 -5.0
-70.925990 42.449028 -4.7
-70.924724 42.449753 -5.0
-70.925415 42.449755 -4.7
-70.926110 42.449761 -4.7
-70.927704 42.447536 -4.1
-70.929129 42.447564 -3.4
-70.929835 42.447594 -3.4
-70.928135 42.448330 -4.1
-70.928829 42.448333 -3.7
-70.929524 42.448333 -3.4
-70.927440 42.449047 -4.1
-70.928149 42.449053 -3.7
-70.928857 42.449055 -3.7
-70.929565 42.449061 -3.4
-70.927504 42.449772 -4.1
-70.928210 42.449778 -3.7
-70.928912 42.449780 -3.4
-70.929615 42.449786 -3.1
-70.930540 42.447625 -3.1
-70.930446 42.447841 -2.9
-70.931246 42.447655 -2.8
-70.931951 42.447686 -2.5
-70.930218 42.448333 -3.1
-70.930912 42.448333 -2.8
-70.932324 42.448344 -2.2
-70.930487 42.448897 -2.9
-70.930274 42.449066 -3.1
-70.931704 42.449078 -2.5
-70.932426 42.449083 -2.2
-70.930546 42.449422 -2.9
-70.930318 42.449791 -2.8
-70.931721 42.449811 -2.2
-70.930601 42.449947 -2.9
-70.932418 42.449822 -1.9
-70.935279 42.437555 1.7
-70.933971 42.437872 1.4
-70.934190 42.437816 1.7
-70.934407 42.437761 1.7
-70.934843 42.437655 1.4
-70.935060 42.437605 1.6
-70.932885 42.438128 1.5
-70.933318 42.438039 1.7
-70.933537 42.437983 1.7
-70.933754 42.437928 1.7
-70.933940 42.438375 -0.5
-70.934287 42.438303 -0.2
-70.934635 42.438230 -0.1
-70.934979 42.438155 0.4
-70.933593 42.438447 -0.8
-70.933137 42.438955 -2.0
-70.933832 42.438961 -1.7
-70.934526 42.438964 -0.7
-70.935221 42.438969 -0.4
-70.935912 42.438975 -0.1
-70.933215 42.439905 -2.4
-70.933926 42.439905 -2.0
-70.934635 42.439905 -1.4
-70.935343 42.439908 -0.8
-70.932971 42.440386 -2.5
-70.933690 42.440391 -2.2
-70.934407 42.440397 -1.6
-70.935126 42.440403 -1.0
-70.933204 42.441200 -2.3
-70.933910 42.441169 -1.9
-70.934618 42.441139 -1.3
-70.933471 42.441603 -2.2
-70.934179 42.441597 -1.9
-70.934885 42.441591 -1.2
-70.935590 42.441586 -0.9
-70.936051 42.439908 -0.5
-70.936076 42.441122 -0.4
-70.936829 42.441133 0.0
-70.936296 42.441583 -0.3
-70.937001 42.441578 0.3
-70.933174 42.442364 -2.3
-70.933890 42.442358 -1.9
-70.934610 42.442353 -1.3
-70.935329 42.442344 -1.0
-70.935274 42.442872 -0.9
-70.933140 42.442878 -2.2
-70.933851 42.442878 -1.9
-70.934562 42.442875 -1.2
-70.934232 42.443372 -1.6
-70.934946 42.443361 -1.2
-70.934140 42.444208 -1.5
-70.934865 42.444211 -1.2
-70.935593 42.444211 -0.6
-70.936046 42.442339 -0.4
-70.935982 42.442872 -0.3
-70.936693 42.442869 0.0
-70.935660 42.443353 -0.6
-70.936374 42.443344 -0.3
-70.936318 42.444211 -0.3
-70.933307 42.445233 -1.8
-70.934015 42.445211 -1.5
-70.934721 42.445191 -0.9
-70.935429 42.445169 -0.6
-70.933118 42.446022 -1.8
-70.933854 42.446011 -1.5
-70.934590 42.446003 -1.2
-70.935326 42.445994 -0.6
-70.933399 42.446416 -1.8
-70.934096 42.446411 -1.2
-70.934793 42.446408 -0.9
-70.932868 42.447111 -1.8
-70.933571 42.447119 -1.5
-70.934271 42.447130 -0.9
-70.934974 42.447139 -0.6
-70.936135 42.445147 -0.3
-70.936062 42.445986 -0.3
-70.935674 42.447150 -0.3
-70.933415 42.447725 -1.6
-70.934171 42.447730 -1.2
-70.934926 42.447736 -0.6
-70.933040 42.448355 -1.6
-70.933757 42.448366 -1.2
-70.934474 42.448375 -0.6
-70.933149 42.449089 -1.6
-70.933871 42.449097 -0.9
-70.934593 42.449103 -0.6
-70.933118 42.449836 -1.2
-70.933815 42.449850 -0.9
-70.934515 42.449864 -0.6
-70.935212 42.449878 0.0
-70.935685 42.447744 -0.3
-70.846552 42.450247 -29.6
-70.846474 42.450764 -29.3
-70.845202 42.451055 -30.4
-70.846397 42.451278 -29.0
-70.845255 42.451594 -30.0
-70.846322 42.451794 -29.3
-70.845308 42.452133 -29.7
-70.845360 42.452672 -29.7
-70.846160 42.452855 -29.4
-70.849302 42.450225 -28.3
-70.849341 42.450714 -17.3
-70.849383 42.451205 -13.9
-70.849360 42.450944 -12.6
-70.849424 42.451694 -15.4
-70.849449 42.452686 -25.6
-70.845413 42.453211 -29.4
-70.846080 42.453403 -29.4
-70.845999 42.453950 -28.7
-70.845619 42.454286 -28.8
-70.845919 42.454494 -29.4
-70.845835 42.455041 -20.3
-70.845774 42.454825 -28.5
-70.845799 42.455297 -23.3
-70.845855 42.455111 -20.5
-70.845927 42.455361 -23.3
-70.849433 42.453186 -25.6
-70.849416 42.453686 -25.6
-70.849363 42.453778 -25.7
-70.849399 42.454186 -22.5
-70.849385 42.454683 -15.1
-70.846080 42.455897 -18.7
-70.845760 42.456105 -19.2
-70.846163 42.456183 -21.8
-70.846235 42.456433 -16.6
-70.845769 42.456619 -19.2
-70.845774 42.457136 -18.6
-70.845783 42.457653 -15.5
-70.845788 42.458166 -20.5
-70.849363 42.455669 -24.0
-70.849358 42.456155 -23.7
-70.849391 42.456350 -23.3
-70.849352 42.456641 -19.8
-70.849349 42.456869 -18.0
-70.849347 42.457128 -21.0
-70.849341 42.457614 -14.8
-70.850102 42.450341 -27.0
-70.851097 42.450258 -25.5
-70.851910 42.450305 -17.0
-70.851905 42.450541 -20.4
-70.852238 42.450433 -17.9
-70.850099 42.450886 -24.2
-70.851147 42.450708 -24.6
-70.852222 42.450894 -25.9
-70.851199 42.451158 -26.7
-70.850097 42.451428 -17.5
-70.852205 42.451355 -22.8
-70.851252 42.451608 -21.2
-70.851799 42.451553 -20.1
-70.852197 42.451600 -18.2
-70.850094 42.451969 -22.7
-70.851274 42.451819 -18.1
-70.852191 42.451814 -19.7
-70.850091 42.452261 -21.8
-70.851302 42.452058 -20.6
-70.851705 42.452058 -18.9
-70.852174 42.452275 -20.3
-70.851610 42.452566 -23.5
-70.852699 42.450139 -30.8
-70.854569 42.450264 -29.4
-70.852688 42.450605 -28.0
-70.853510 42.450530 -30.6
-70.854655 42.450711 -29.7
-70.852674 42.451069 -28.0
-70.853519 42.450975 -30.8
-70.854744 42.451155 -29.7
-70.853527 42.451416 -30.4
-70.854830 42.451603 -29.7
-70.852688 42.452033 -21.9
-70.853538 42.451861 -23.6
-70.854919 42.452047 -29.4
-70.852716 42.452533 -20.2
-70.853580 42.452761 -21.5
-70.857530 42.450130 -27.6
-70.855805 42.450525 -28.7
-70.856247 42.450628 -28.6
-70.857613 42.450597 -27.6
-70.855849 42.450955 -28.9
-70.856308 42.451105 -28.3
-70.857697 42.451064 -27.3
-70.855894 42.451383 -28.9
-70.856366 42.451583 -28.0
-70.857780 42.451530 -27.0
-70.855938 42.451814 -28.6
-70.856427 42.452061 -28.0
-70.856488 42.452539 -27.6
-70.857485 42.452591 -27.2
-70.856013 42.452672 -27.8
-70.859510 42.450430 -26.6
-70.859602 42.450875 -26.0
-70.858813 42.451225 -26.7
-70.859588 42.451441 -25.8
-70.859694 42.451319 -26.2
-70.858813 42.451761 -26.4
-70.857863 42.451997 -27.0
-70.859427 42.451914 -26.0
-70.859783 42.451766 -25.9
-70.858816 42.452297 -26.1
-70.859874 42.452211 -25.6
-70.857947 42.452464 -26.7
-70.859266 42.452383 -26.0
-70.860600 42.452341 -24.8
-70.858816 42.452833 -25.8
-70.859102 42.452855 -25.7
-70.860556 42.452855 -24.5
-70.860763 42.450311 -25.7
-70.861784 42.450353 -25.3
-70.862459 42.450561 -25.1
-70.863234 42.450497 -24.7
-70.860685 42.451311 -25.5
-70.861745 42.451283 -25.0
-70.863278 42.451466 -24.2
-70.861706 42.451753 -24.7
-70.862525 42.451533 -24.5
-70.860642 42.451825 -25.1
-70.862556 42.452008 -24.8
-70.863309 42.451950 -24.0
-70.861670 42.452225 -24.4
-70.862584 42.452483 -24.2
-70.863339 42.452433 -24.0
-70.861631 42.452694 -24.4
-70.865245 42.450305 -24.4
-70.864478 42.450397 -24.4
-70.864514 42.450886 -24.4
-70.865239 42.450872 -24.0
-70.864548 42.451375 -24.1
-70.864584 42.451864 -23.3
-70.865309 42.452000 -23.4
-70.864617 42.452353 -23.5
-70.865384 42.452555 -23.2
-70.850116 42.453086 -19.4
-70.851377 42.452958 -22.8
-70.851516 42.453072 -17.2
-70.850483 42.453414 -22.3
-70.851149 42.453375 -13.1
-70.851399 42.453405 -16.8
-70.851816 42.453333 -16.5
-70.852174 42.453211 -20.6
-70.849816 42.453455 -23.0
-70.850127 42.453436 -20.5
-70.850144 42.453658 -24.5
-70.850749 42.453697 -25.0
-70.851422 42.453580 -18.3
-70.851444 42.453658 -17.6
-70.852135 42.453616 -16.4
-70.852194 42.453683 -16.3
-70.850058 42.453739 -23.2
-70.850158 42.453964 -22.7
-70.851422 42.453855 -22.8
-70.850169 42.454230 -24.8
-70.852210 42.454155 -15.7
-70.851535 42.454316 -23.8
-70.851444 42.454303 -24.0
-70.852233 42.454272 -19.2
-70.850197 42.454803 -24.2
-70.851238 42.454589 -23.8
-70.851466 42.454750 -23.7
-70.852227 42.454630 -23.1
-70.851147 42.455091 -17.6
-70.852252 42.455325 -18.2
-70.852244 42.455103 -22.2
-70.850224 42.455375 -23.3
-70.851058 42.455597 -18.5
-70.851480 42.455641 -15.2
-70.852744 42.453033 -17.7
-70.854985 42.452947 -28.9
-70.852483 42.453294 -18.0
-70.853149 42.453253 -18.9
-70.853610 42.453219 -20.3
-70.854966 42.453397 -25.7
-70.852772 42.453530 -16.7
-70.852830 42.453578 -17.6
-70.853524 42.453536 -19.2
-70.853644 42.453678 -24.7
-70.852397 42.453941 -16.1
-70.852944 42.453916 -22.0
-70.853488 42.453891 -18.0
-70.854033 42.453866 -25.3
-70.854944 42.453850 -27.8
-70.852799 42.454030 -21.6
-70.852930 42.454228 -17.6
-70.853624 42.454183 -23.5
-70.853677 42.454136 -21.2
-70.854322 42.454139 -22.3
-70.852810 42.454264 -18.0
-70.853694 42.454380 -18.5
-70.854924 42.454303 -25.4
-70.852835 42.454766 -20.0
-70.853710 42.454594 -23.1
-70.854905 42.454753 -22.0
-70.852849 42.455036 -22.2
-70.852858 42.455272 -20.3
-70.852872 42.455541 -21.9
-70.853763 42.455491 -21.5
-70.856047 42.453103 -27.5
-70.856972 42.453075 -27.2
-70.856077 42.453533 -27.3
-70.856572 42.453483 -27.0
-70.856963 42.453608 -26.5
-70.857577 42.453614 -23.8
-70.856110 42.453961 -27.0
-70.856594 42.453953 -26.4
-70.855744 42.454083 -26.9
-70.856472 42.454069 -24.7
-70.856955 42.454144 -24.1
-70.857197 42.454055 -16.1
-70.857535 42.454050 -13.4
-70.857624 42.454122 -13.4
-70.856016 42.454347 -26.2
-70.856141 42.454391 -26.1
-70.856616 42.454422 -15.0
-70.856733 42.454397 -17.0
-70.857452 42.454447 -11.6
-70.855416 42.454805 -25.9
-70.856947 42.454678 -14.3
-70.857672 42.454633 -23.5
-70.856105 42.454855 -25.6
-70.856638 42.454891 -24.3
-70.856797 42.454903 -20.5
-70.857488 42.454953 -25.0
-70.856155 42.455364 -25.3
-70.856177 42.455255 -24.5
-70.856660 42.455361 -20.3
-70.856938 42.455211 -18.9
-70.857805 42.455147 -24.5
-70.856833 42.455408 -20.8
-70.857513 42.455453 -17.3
-70.859970 42.453128 -25.0
-70.857983 42.453372 -26.1
-70.858819 42.453369 -25.8
-70.858941 42.453325 -26.0
-70.860514 42.453372 -25.0
-70.859970 42.453597 -22.9
-70.857938 42.453816 -25.8
-70.858819 42.453905 -25.5
-70.859970 42.453847 -20.7
-70.857922 42.454041 -16.1
-70.857894 42.454261 -19.9
-70.858649 42.454030 -25.3
-70.859970 42.454066 -24.4
-70.858172 42.454494 -23.5
-70.858641 42.454266 -25.1
-70.859973 42.454536 -20.2
-70.860536 42.454403 -23.6
-70.857849 42.454703 -24.8
-70.858505 42.454733 -24.8
-70.858888 42.454544 -24.4
-70.860278 42.454658 -20.8
-70.858180 42.455003 -24.4
-70.858830 42.454983 -24.3
-70.859973 42.455005 -16.7
-70.858369 42.455203 -24.5
-70.859595 42.455105 -16.1
-70.859973 42.455225 -12.7
-70.860320 42.455158 -7.5
-70.858191 42.455497 -24.1
-70.858870 42.455541 -23.5
-70.858835 42.455525 -23.6
-70.860245 42.455625 -14.6
-70.862614 42.452958 -23.9
-70.863373 42.452916 -23.7
-70.861592 42.453166 -24.4
-70.862642 42.453430 -23.6
-70.861536 42.454125 -23.5
-70.862642 42.454389 -22.0
-70.860950 42.454722 -21.1
-70.861620 42.454789 -21.7
-70.861517 42.454608 -21.7
-70.862628 42.454614 -18.3
-70.860606 42.454916 -10.6
-70.861500 42.455094 -13.0
-70.862611 42.454869 -22.0
-70.860639 42.455191 -8.1
-70.861045 42.455211 -11.6
-70.861770 42.455264 -11.9
-70.862498 42.455316 -18.9
-70.862595 42.455128 -18.3
-70.862581 42.455353 -20.7
-70.860673 42.455430 -10.3
-70.861481 42.455580 -11.9
-70.862567 42.455575 -17.0
-70.865459 42.453114 -22.9
-70.863403 42.453400 -23.4
-70.864606 42.453330 -23.1
-70.865531 42.453669 -23.1
-70.864559 42.453822 -23.3
-70.865606 42.454225 -23.2
-70.863448 42.454366 -23.3
-70.864511 42.454311 -23.6
-70.864464 42.454800 -24.2
-70.863459 42.454847 -22.4
-70.863470 42.455328 -25.1
-70.864420 42.455291 -24.8
-70.865734 42.455322 -24.4
-70.852266 42.455822 -12.3
-70.850966 42.456100 -17.6
-70.851474 42.456080 -15.9
-70.850105 42.456339 -23.4
-70.850819 42.456328 -21.3
-70.851533 42.456316 -17.0
-70.852247 42.456305 -14.8
-70.850224 42.456497 -21.8
-70.850877 42.456603 -22.3
-70.851469 42.456522 -19.4
-70.850835 42.456836 -16.7
-70.851463 42.456964 -21.9
-70.850177 42.457591 -10.3
-70.851458 42.457405 -22.8
-70.851452 42.457847 -21.2
-70.850152 42.458139 -9.7
-70.854885 42.455697 -25.1
-70.852269 42.456036 -14.3
-70.852894 42.456047 -14.2
-70.853783 42.455930 -16.0
-70.854885 42.456186 -24.8
-70.852624 42.456300 -14.0
-70.852958 42.456294 -15.0
-70.853805 42.456369 -23.7
-70.854399 42.456272 -24.6
-70.852277 42.456494 -23.4
-70.852283 42.456739 -21.2
-70.852916 42.456553 -23.4
-70.854888 42.456675 -20.8
-70.852285 42.456950 -24.0
-70.853827 42.456808 -23.8
-70.854888 42.456905 -18.5
-70.852938 42.457061 -23.8
-70.853847 42.457250 -23.0
-70.854888 42.457166 -20.7
-70.852294 42.457408 -23.4
-70.852960 42.457566 -23.2
-70.852302 42.457866 -22.2
-70.853869 42.457689 -22.3
-70.854888 42.457655 -18.6
-70.852983 42.458072 -22.4
-70.853888 42.458128 -21.0
-70.856183 42.455691 -24.2
-70.856930 42.455744 -23.5
-70.857744 42.455661 -24.1
-70.856188 42.456128 -23.9
-70.857769 42.456178 -22.3
-70.857713 42.456053 -23.6
-70.855124 42.456258 -18.5
-70.855852 42.456247 -24.3
-70.856577 42.456233 -22.5
-70.856924 42.456278 -19.8
-70.856783 42.456214 -20.3
-70.856816 42.456353 -21.3
-70.857305 42.456222 -18.3
-70.856194 42.456564 -23.6
-70.857794 42.456697 -16.7
-70.857666 42.456514 -19.0
-70.857641 42.456761 -17.3
-70.856199 42.457000 -18.4
-70.856949 42.456875 -22.7
-70.857622 42.456978 -20.8
-70.857819 42.457214 -17.3
-70.857599 42.457191 -18.1
-70.856205 42.457436 -14.1
-70.857085 42.457400 -21.7
-70.857574 42.457439 -20.7
-70.856210 42.457869 -13.4
-70.857219 42.457922 -20.2
-70.857527 42.457900 -18.7
-70.858230 42.455672 -24.0
-70.858094 42.456141 -23.4
-70.858845 42.456064 -22.7
-70.859967 42.455936 -21.3
-70.858033 42.456208 -22.2
-70.859495 42.456228 -21.5
-70.859961 42.456394 -15.5
-70.859889 42.456244 -18.1
-70.860231 42.456261 -21.2
-70.858853 42.456605 -19.0
-70.858859 42.456894 -18.1
-70.859956 42.456855 -20.1
-70.857988 42.457100 -20.8
-70.858861 42.457147 -19.0
-70.859948 42.457314 -21.9
-70.858002 42.457328 -17.0
-70.858020 42.457589 -20.5
-70.857844 42.457733 -19.5
-70.859942 42.457775 -21.0
-70.858050 42.458078 -17.1
-70.858911 42.458236 -16.2
-70.860939 42.455666 -11.9
-70.861634 42.455705 -13.4
-70.862328 42.455744 -16.1
-70.862550 42.455833 -17.0
-70.863023 42.455783 -22.3
-70.860739 42.455947 -16.6
-70.861464 42.456066 -15.5
-70.860625 42.456278 -16.3
-70.860806 42.456461 -15.9
-70.860967 42.456291 -20.0
-70.861706 42.456325 -19.1
-70.862442 42.456358 -20.0
-70.862520 42.456314 -20.1
-70.861386 42.457039 -21.7
-70.862434 42.457269 -22.3
-70.860875 42.457483 -21.8
-70.861325 42.457525 -22.0
-70.862739 42.457383 -23.0
-70.862378 42.457741 -22.3
-70.862767 42.457869 -23.1
-70.860875 42.457989 -18.7
-70.861267 42.458011 -18.9
-70.860878 42.458258 -13.9
-70.862320 42.458214 -23.2
-70.862792 42.458355 -23.2
-70.863342 42.458216 -23.7
-70.863481 42.455811 -24.4
-70.865784 42.455861 -24.7
-70.863498 42.456453 -18.2
-70.863492 42.456291 -21.0
-70.863903 42.456364 -24.3
-70.864436 42.456294 -25.4
-70.864631 42.456341 -25.2
-70.865356 42.456316 -24.6
-70.865836 42.456400 -24.4
-70.866084 42.456291 -24.6
-70.863734 42.456747 -25.1
-70.864500 42.456805 -24.8
-70.865886 42.456941 -24.4
-70.863450 42.457255 -23.4
-70.863720 42.457219 -23.9
-70.864564 42.457319 -24.5
-70.865939 42.457480 -24.0
-70.863395 42.457736 -23.4
-70.863709 42.457689 -23.9
-70.864631 42.457833 -24.6
-70.863695 42.458161 -23.6
-70.864695 42.458344 -24.2
-70.850127 42.458689 -9.4
-70.853008 42.458578 -14.5
-70.857352 42.458447 -19.0
-70.858078 42.458566 -19.6
-70.859920 42.458697 -18.6
-70.858956 42.458780 -19.8
-70.858109 42.459055 -19.3
-70.859903 42.459158 -19.2
-70.860220 42.459144 -19.5
-70.859000 42.459325 -15.3
-70.859886 42.459622 -15.6
-70.860203 42.459666 -15.2
-70.858203 42.460016 -20.5
-70.859042 42.459872 -20.2
-70.859870 42.460083 -19.8
-70.860189 42.460186 -19.5
-70.858267 42.460491 -21.1
-70.859086 42.460416 -22.4
-70.859853 42.460547 -21.9
-70.860175 42.460708 -21.4
-70.858331 42.460966 -21.7
-70.860878 42.458494 -16.6
-70.861206 42.458497 -14.9
-70.862264 42.458686 -22.6
-70.863286 42.458700 -23.4
-70.860881 42.458730 -14.7
-70.861539 42.458866 -18.5
-70.862817 42.458841 -23.1
-70.861011 42.459230 -19.8
-70.861148 42.458986 -19.5
-70.860881 42.459000 -19.9
-70.862209 42.459161 -20.4
-70.863231 42.459180 -22.4
-70.860884 42.459508 -18.1
-70.861545 42.459380 -20.0
-70.862842 42.459325 -19.7
-70.860992 42.459755 -19.5
-70.861550 42.459894 -18.8
-70.860970 42.460280 -18.6
-70.862089 42.460119 -17.3
-70.862861 42.460291 -17.5
-70.863175 42.460125 -18.8
-70.860861 42.460525 -16.9
-70.861556 42.460408 -13.6
-70.862025 42.460605 -15.8
-70.862859 42.460514 -15.6
-70.863170 42.460586 -18.8
-70.860850 42.460764 -16.2
-70.860950 42.460805 -17.0
-70.861561 42.460922 -11.2
-70.862853 42.460769 -18.1
-70.863170 42.460800 -16.0
-70.860836 42.461036 -18.5
-70.861564 42.461094 -5.0
-70.861961 42.461089 -13.0
-70.863167 42.461047 -18.5
-70.863684 42.458633 -23.6
-70.866009 42.458569 -23.7
-70.866028 42.459116 -23.1
-70.864753 42.459355 -23.9
-70.863673 42.459808 -19.6
-70.863673 42.459583 -22.1
-70.866048 42.459666 -22.5
-70.863675 42.460064 -21.2
-70.864750 42.459853 -23.4
-70.864745 42.460350 -21.7
-70.866067 42.460216 -22.5
-70.863675 42.460544 -21.8
-70.864739 42.460847 -22.2
-70.866086 42.460764 -22.8
-70.863678 42.461025 -19.3
-70.865436 42.461064 -22.5
-70.857436 42.463969 -12.1
-70.858395 42.461439 -20.5
-70.859806 42.461480 -18.9
-70.860161 42.461228 -20.8
-70.858461 42.461914 -18.7
-70.859775 42.461947 -19.9
-70.859745 42.462416 -18.9
-70.858498 42.462878 -10.3
-70.859714 42.462886 -16.7
-70.858473 42.463369 -5.6
-70.859684 42.463355 -15.1
-70.858445 42.463861 -7.5
-70.860178 42.463955 -15.4
-70.860823 42.461311 -17.2
-70.860931 42.461330 -16.4
-70.861567 42.461436 -11.2
-70.862842 42.461475 -7.1
-70.862848 42.461250 -13.5
-70.860811 42.461550 -19.9
-70.861898 42.461575 -13.9
-70.862839 42.461730 -13.2
-70.863164 42.461508 -12.6
-70.860911 42.461855 -19.8
-70.861573 42.461950 -17.3
-70.861861 42.461836 -13.0
-70.863161 42.461966 -19.7
-70.860786 42.462061 -19.9
-70.861831 42.462061 -18.9
-70.862834 42.462208 -19.4
-70.860764 42.462572 -16.2
-70.863092 42.462339 -18.7
-70.861653 42.463133 -13.6
-70.861711 42.463030 -18.0
-70.861925 42.462980 -17.4
-70.863186 42.463141 -12.9
-70.863178 42.462916 -13.8
-70.861342 42.463305 -17.4
-70.862803 42.463169 -15.2
-70.863198 42.463403 -14.4
-70.860739 42.463578 -16.6
-70.860761 42.463630 -16.6
-70.861656 42.463514 -15.1
-70.862778 42.463650 -15.6
-70.863217 42.463889 -13.4
-70.863678 42.461250 -15.0
-70.864736 42.461344 -21.6
-70.864850 42.461383 -21.5
-70.863681 42.461505 -16.9
-70.864264 42.461700 -18.5
-70.864734 42.461578 -18.6
-70.863678 42.462019 -20.3
-70.866059 42.461861 -22.5
-70.863678 42.462475 -17.9
-70.864720 42.462336 -21.1
-70.866014 42.462408 -20.9
-70.864711 42.462828 -20.1
-70.863670 42.462961 -14.4
-70.865970 42.462958 -20.6
-70.864700 42.463322 -18.3
-70.863664 42.463450 -13.4
-70.864695 42.463553 -14.9
-70.865925 42.463505 -17.9
-70.863659 42.463939 -13.1
-70.864689 42.463816 -16.8
-70.857470 42.464508 -8.7
-70.857503 42.465047 -11.8
-70.857520 42.465300 -10.0
-70.857536 42.465586 -12.8
-70.857570 42.466125 -12.8
-70.858420 42.464350 -10.3
-70.859623 42.464294 -14.2
-70.859592 42.464766 -12.7
-70.858395 42.464841 -13.4
-70.859561 42.465236 -13.0
-70.857903 42.465547 -13.6
-70.858617 42.465511 -13.9
-70.859334 42.465475 -13.9
-70.860048 42.465439 -13.6
-70.858359 42.465825 -14.4
-70.859531 42.465708 -13.9
-70.859500 42.466178 -15.5
-70.858348 42.466319 -14.7
-70.858903 42.466558 -14.9
-70.860739 42.464066 -15.6
-70.861600 42.463997 -15.5
-70.862756 42.464130 -15.0
-70.861542 42.464480 -14.8
-70.863239 42.464375 -13.2
-70.860739 42.464558 -15.0
-70.862734 42.464608 -13.8
-70.860739 42.465050 -14.4
-70.861486 42.464966 -14.8
-70.862711 42.465089 -13.5
-70.863259 42.464861 -12.9
-70.861478 42.465364 -14.5
-70.862195 42.465328 -14.5
-70.860764 42.465400 -14.5
-70.860739 42.465539 -14.4
-70.863278 42.465825 -9.9
-70.861428 42.465933 -14.5
-70.862684 42.466041 -11.3
-70.861428 42.466419 -14.5
-70.863278 42.466303 -9.9
-70.860700 42.466516 -14.4
-70.862678 42.466511 -12.3
-70.865881 42.464053 -17.0
-70.863653 42.464425 -11.6
-70.864681 42.464308 -12.8
-70.864298 42.465005 -10.0
-70.865014 42.465008 -9.7
-70.865553 42.464869 -11.2
-70.865731 42.465011 -12.2
-70.863628 42.465266 -12.1
-70.864103 42.465336 -8.8
-70.864348 42.465241 -9.3
-70.864642 42.465291 -8.5
-70.864814 42.465330 -7.5
-70.865067 42.465216 -8.1
-70.865523 42.465325 -8.5
-70.865784 42.465191 -9.3
-70.863642 42.465633 -8.2
-70.863645 42.465405 -10.0
-70.865550 42.465405 -6.9
-70.863639 42.465897 -9.0
-70.864373 42.465689 -7.9
-70.864611 42.465780 -6.2
-70.865078 42.465694 -6.6
-70.865781 42.465697 -7.9
-70.863639 42.466158 -8.1
-70.864595 42.466072 -6.6
-70.865320 42.466066 -6.6
-70.865550 42.465939 -7.2
-70.865659 42.466064 -5.7
-70.866045 42.466061 -6.6
-70.863636 42.466389 -8.7
-70.864584 42.466266 -6.3
-70.865548 42.466475 -5.3
-70.864631 42.466533 -6.6
-70.864556 42.466755 -6.3
-70.865331 42.466522 -5.7
-70.866034 42.466511 -5.7
-70.866306 42.450364 -24.0
-70.868084 42.450164 -23.5
-70.867578 42.450544 -23.7
-70.866320 42.450869 -23.7
-70.868100 42.450705 -23.6
-70.867592 42.451089 -23.7
-70.866334 42.451378 -23.5
-70.867609 42.451633 -23.5
-70.866348 42.451883 -23.5
-70.868142 42.451783 -23.4
-70.867623 42.452178 -23.4
-70.866361 42.452391 -23.2
-70.868164 42.452322 -23.6
-70.868186 42.452861 -23.6
-70.870436 42.450428 -24.0
-70.871348 42.450472 -24.0
-70.869323 42.451000 -23.5
-70.871336 42.450997 -23.7
-70.870409 42.451455 -23.7
-70.869320 42.451533 -23.5
-70.870392 42.451961 -23.4
-70.869317 42.452069 -23.5
-70.871298 42.452044 -23.7
-70.870375 42.452466 -23.4
-70.871267 42.452564 -23.7
-70.869317 42.452605 -23.5
-70.872867 42.450183 -24.5
-70.873417 42.450125 -24.3
-70.873386 42.450647 -24.3
-70.873353 42.451172 -24.0
-70.872767 42.451236 -24.2
-70.872703 42.451744 -23.6
-70.873323 42.451694 -24.0
-70.872642 42.452250 -23.6
-70.872578 42.452758 -23.6
-70.873331 42.452753 -23.7
-70.875661 42.450572 -24.0
-70.876789 42.450533 -23.7
-70.875189 42.451016 -24.2
-70.876806 42.451053 -23.7
-70.875084 42.451514 -23.9
-70.875673 42.451597 -23.7
-70.876820 42.451575 -23.7
-70.874978 42.452014 -23.6
-70.875675 42.452114 -23.4
-70.876836 42.452094 -23.4
-70.874873 42.452511 -23.6
-70.875678 42.452630 -23.4
-70.877725 42.450255 -24.0
-70.879031 42.450119 -23.7
-70.877731 42.450769 -23.7
-70.879045 42.450661 -23.7
-70.877734 42.451283 -23.4
-70.878995 42.451733 -23.1
-70.879467 42.451647 -23.0
-70.877753 42.452300 -23.1
-70.878928 42.452269 -22.8
-70.879445 42.452144 -22.6
-70.877770 42.452803 -22.7
-70.878864 42.452803 -22.5
-70.879420 42.452644 -22.3
-70.882650 42.450166 -22.9
-70.880556 42.450461 -23.6
-70.882456 42.450405 -23.0
-70.882514 42.450925 -22.7
-70.882661 42.450728 -22.9
-70.880598 42.451033 -23.3
-70.882445 42.451453 -22.5
-70.882573 42.451441 -22.7
-70.881850 42.451786 -22.5
-70.880678 42.452075 -23.0
-70.881256 42.452119 -22.5
-70.880720 42.452541 -22.6
-70.880661 42.452453 -22.3
-70.882645 42.452483 -22.0
-70.866406 42.453422 -22.9
-70.867659 42.453266 -23.4
-70.868209 42.453400 -23.3
-70.866434 42.453950 -23.3
-70.867678 42.453808 -23.4
-70.868234 42.453939 -23.0
-70.866464 42.454475 -23.8
-70.867698 42.454350 -23.4
-70.866495 42.455000 -23.8
-70.867720 42.454894 -23.7
-70.868292 42.455008 -23.6
-70.866523 42.455525 -24.1
-70.867739 42.455436 -24.0
-70.868331 42.455539 -23.3
-70.869314 42.453139 -23.5
-70.870359 42.452975 -23.4
-70.871236 42.453083 -23.4
-70.870345 42.453480 -23.4
-70.871206 42.453603 -23.4
