-70.977727 42.419116 -0.6
-70.978450 42.419103 -0.6
-70.979172 42.419089 -0.6
-70.981141 42.416991 -1.2
-70.981775 42.416997 -1.2
-70.982405 42.417003 -1.0
-70.980322 42.417780 -0.9
-70.981547 42.417811 -0.5
-70.982161 42.417830 -0.5
-70.982775 42.417847 -0.5
-70.980402 42.418575 -0.6
-70.981002 42.418578 -0.5
-70.981602 42.418583 -0.5
-70.982805 42.418586 -0.3
-70.980594 42.419061 -0.2
-70.981294 42.419047 -0.2
-70.981991 42.419033 -0.2
-70.982691 42.419019 -0.2
-70.966780 42.419566 -2.6
-70.967380 42.419600 -2.4
-70.968575 42.419644 -2.3
-70.966283 42.420453 -2.4
-70.967030 42.420483 -2.3
-70.967780 42.420516 -2.2
-70.968530 42.420550 -2.2
-70.966683 42.421275 -2.3
-70.967397 42.421261 -2.2
-70.968111 42.421244 -2.0
-70.966486 42.422116 -2.3
-70.967191 42.422097 -2.1
-70.967900 42.422078 -2.0
-70.968605 42.422058 -2.0
-70.969172 42.419653 -2.1
-70.969766 42.419664 -2.0
-70.970363 42.419672 -1.6
-70.970958 42.419680 -1.5
-70.970944 42.420078 -1.6
-70.971550 42.420072 -1.2
-70.969280 42.420580 -2.0
-70.970777 42.420639 -1.4
-70.971527 42.420666 -1.1
-70.970811 42.421178 -1.4
-70.971555 42.421186 -1.0
-70.969533 42.421225 -2.0
-70.970238 42.421222 -1.7
-70.970947 42.421219 -1.4
-70.969313 42.422036 -1.8
-70.970725 42.422016 -1.3
-70.971433 42.422014 -1.2
-70.972188 42.419686 -1.3
-70.972825 42.419680 -1.3
-70.973461 42.419675 -1.3
-70.974097 42.419669 -1.0
-70.972158 42.420064 -1.2
-70.972763 42.420055 -1.2
-70.973369 42.420050 -1.2
-70.972277 42.420691 -1.2
-70.973027 42.420719 -1.2
-70.973777 42.420744 -1.1
-70.972297 42.421194 -1.4
-70.973041 42.421203 -1.4
-70.973786 42.421211 -1.0
-70.972138 42.422014 -1.3
-70.972847 42.422011 -1.6
-70.973552 42.422011 -1.3
-70.974730 42.419664 -0.9
-70.975977 42.419658 -0.7
-70.976588 42.419661 -0.7
-70.977202 42.419664 -0.7
-70.974577 42.420039 -0.7
-70.975177 42.420039 -0.7
-70.975777 42.420036 -0.7
-70.976377 42.420036 -0.7
-70.976980 42.420033 -0.6
-70.975275 42.420769 -0.8
-70.976022 42.420766 -0.6
-70.976769 42.420764 -0.6
-70.975238 42.421233 -0.7
-70.975947 42.421247 -0.7
-70.976655 42.421261 -0.7
-70.974947 42.422003 -0.7
-70.975636 42.421997 -0.9
-70.976325 42.421991 -1.0
-70.977011 42.421986 -0.6
-70.977813 42.419666 -0.5
-70.978425 42.419669 -0.4
-70.979636 42.419672 -0.4
-70.978188 42.420030 -0.4
-70.978797 42.420028 -0.4
-70.979408 42.420025 -0.3
-70.980016 42.420025 -0.3
-70.977516 42.420761 -0.4
-70.978263 42.420755 -0.3
-70.979730 42.420730 -0.1
-70.977363 42.421278 -0.4
-70.978072 42.421291 -0.3
-70.979666 42.421514 -0.2
-70.977700 42.421980 -0.1
-70.980236 42.419672 -0.4
-70.980836 42.419672 -0.3
-70.981436 42.419675 -0.3
-70.982036 42.419675 -0.3
-70.981191 42.420028 -0.1
-70.981758 42.420033 -0.1
-70.982322 42.420039 0.0
-70.982602 42.420636 0.2
-70.980450 42.420705 -0.1
-70.981166 42.420683 0.0
-70.981886 42.420658 0.0
-70.980322 42.421561 -0.2
-70.980977 42.421605 0.0
-70.981633 42.421653 0.1
-70.982291 42.421697 0.3
-70.966186 42.422561 -2.1
-70.966911 42.422541 -2.1
-70.968344 42.422508 -1.8
-70.968494 42.423239 -1.8
-70.966644 42.423458 -1.9
-70.968061 42.423508 -1.7
-70.968761 42.423539 -1.6
-70.966358 42.424086 -1.6
-70.967100 42.424058 -1.7
-70.967841 42.424028 -1.7
-70.968583 42.423997 -1.6
-70.966391 42.424425 -1.8
-70.967094 42.424419 -1.8
-70.967797 42.424411 -1.8
-70.968502 42.424405 -1.5
-70.969052 42.422491 -1.8
-70.969763 42.422472 -1.5
-70.970472 42.422455 -1.5
-70.971180 42.422439 -1.1
-70.969255 42.423250 -1.5
-70.970016 42.423264 -1.3
-70.970777 42.423278 -1.2
-70.971538 42.423291 -1.5
-70.969461 42.423566 -1.4
-70.970163 42.423594 -1.3
-70.970863 42.423622 -1.3
-70.969325 42.423969 -1.4
-70.970808 42.423903 -1.2
-70.971552 42.423866 -1.7
-70.969908 42.424394 -1.5
-70.970608 42.424391 -1.5
-70.971308 42.424389 -1.7
-70.972600 42.422408 -1.6
-70.973313 42.422394 -1.5
-70.974025 42.422383 -1.1
-70.973041 42.423314 -1.8
-70.973780 42.423325 -1.3
-70.972272 42.423666 -1.8
-70.972980 42.423683 -1.5
-70.973688 42.423697 -1.2
-70.972294 42.423828 -1.7
-70.973038 42.423791 -1.4
-70.973780 42.423755 -1.0
-70.974397 42.423714 -0.5
-70.972011 42.424386 -1.7
-70.972711 42.424383 -1.6
-70.974116 42.424364 -1.1
-70.974736 42.422369 -0.8
-70.975450 42.422355 -0.6
-70.976850 42.422344 -0.6
-70.974522 42.423336 -0.7
-70.975263 42.423344 -0.5
-70.976005 42.423355 -0.9
-70.975227 42.423686 -0.4
-70.975930 42.423653 -0.7
-70.976636 42.423619 -0.4
-70.975105 42.423730 -0.5
-70.974816 42.424350 -0.5
-70.975519 42.424336 -0.5
-70.976222 42.424322 -0.6
-70.976925 42.424308 -0.3
-70.977536 42.422344 -0.1
-70.978122 42.422430 -0.2
-70.978813 42.422447 -0.1
-70.979505 42.422466 -0.2
-70.977461 42.423333 0.0
-70.978175 42.423297 0.0
-70.978888 42.423264 0.0
-70.979605 42.423230 0.1
-70.977338 42.423586 0.0
-70.978041 42.423553 0.0
-70.980200 42.422483 0.1
-70.980891 42.422503 0.1
-70.981586 42.422519 0.3
-70.980319 42.423197 0.1
-70.966822 42.425225 -1.6
-70.967513 42.425233 -1.4
-70.968208 42.425241 -1.3
-70.966275 42.426069 -1.5
-70.967030 42.426083 -1.3
-70.967783 42.426097 -1.3
-70.968538 42.426111 -1.5
-70.966650 42.426744 -1.6
-70.968033 42.426797 -1.4
-70.968727 42.426828 -1.4
-70.966166 42.427444 -1.2
-70.966294 42.427691 -1.3
-70.967808 42.427761 -1.0
-70.968566 42.427794 -0.8
-70.969600 42.425255 -1.6
-70.970300 42.425261 -1.6
-70.970997 42.425266 -1.4
-70.971697 42.425272 -1.6
-70.970052 42.426139 -1.3
-70.970811 42.426153 -1.2
-70.971572 42.426164 -1.0
-70.969422 42.426855 -1.1
-70.970116 42.426886 -0.7
-70.970813 42.426914 -1.1
-70.969327 42.427828 -0.8
-70.970088 42.427861 -1.2
-70.972397 42.425275 -1.4
-70.973786 42.425289 -1.0
-70.974477 42.425297 -0.3
-70.972330 42.426178 -0.8
-70.973088 42.426191 -0.6
-70.972194 42.426969 -0.9
-70.972883 42.426994 -0.7
-70.973572 42.427016 -0.4
-70.974258 42.427041 -0.4
-70.975166 42.425303 -0.2
-70.975858 42.425311 -0.3
-70.976547 42.425319 -0.5
-70.977238 42.425328 0.2
-70.974575 42.426216 -0.2
-70.975302 42.426228 -0.3
-70.976033 42.426239 -0.6
-70.976761 42.426250 0.2
-70.974947 42.427066 -0.7
-70.975636 42.427091 -0.6
-70.976322 42.427116 -0.1
-70.977488 42.426261 0.2
-70.966191 42.427983 -1.2
-70.967466 42.428414 -0.7
-70.966219 42.428519 -1.1
-70.968161 42.428455 -0.8
-70.968852 42.428497 -1.2
-70.966244 42.429055 -0.8
-70.966350 42.429266 -0.7
-70.966505 42.429494 -0.8
-70.967216 42.429519 -0.9
-70.967819 42.429339 -1.0
-70.968550 42.429375 -0.9
-70.966269 42.429591 -0.6
-70.967925 42.429541 -0.9
-70.968636 42.429566 -0.6
-70.966786 42.430275 -0.6
-70.967508 42.430264 -0.6
-70.968227 42.430253 -0.5
-70.970847 42.427897 -1.3
-70.969544 42.428539 -1.2
-70.970238 42.428580 -1.2
-70.971605 42.428661 -0.5
-70.969283 42.429411 -0.7
-70.970013 42.429444 -0.4
-70.970747 42.429480 -0.4
-70.969347 42.429589 -0.6
-70.968947 42.430241 -0.5
-70.969666 42.430233 -0.6
-70.971072 42.430219 -0.6
-70.972327 42.427930 -0.5
-70.973050 42.427930 -0.2
-70.973769 42.427930 -0.8
-70.974488 42.427930 -0.6
-70.972283 42.428700 -0.4
-70.972961 42.428741 -0.8
-70.973636 42.428780 -0.7
-70.974313 42.428822 -0.2
-70.972172 42.429544 -0.7
-70.972863 42.429572 -0.4
-70.973555 42.429600 -0.1
-70.974247 42.429630 0.1
-70.971755 42.430214 -0.6
-70.972441 42.430211 -0.3
-70.973125 42.430208 0.0
-70.975208 42.427930 -0.5
-70.975619 42.428905 0.2
-70.974938 42.429658 0.1
-70.981619 42.429822 0.5
-70.981950 42.430047 -0.1
-70.982280 42.430272 1.3
-70.980422 42.430608 -0.1
-70.980950 42.430444 0.5
-70.981294 42.430636 -0.1
-70.982611 42.430497 1.2
-70.966394 42.431166 -0.5
-70.967072 42.431169 -0.2
-70.967752 42.431172 -0.1
-70.968430 42.431175 -0.1
-70.966575 42.431891 -0.2
-70.967283 42.431875 0.1
-70.967994 42.431858 0.1
-70.966694 42.432650 -0.1
-70.967375 42.432653 -0.1
-70.968055 42.432658 -0.1
-70.968736 42.432661 -0.1
-70.966558 42.433303 0.2
-70.967269 42.433289 0.3
-70.967983 42.433272 0.3
-70.968694 42.433258 0.3
-70.969111 42.431178 -0.1
-70.970477 42.431183 -0.1
-70.971166 42.431189 -0.1
-70.969400 42.431836 0.1
-70.970097 42.431830 0.1
-70.970794 42.431822 0.1
-70.971488 42.431816 0.1
-70.971852 42.431191 -0.1
-70.972541 42.431197 0.2
-70.972186 42.431808 0.3
-70.977144 42.433380 -0.1
-70.979608 42.431536 -1.3
-70.979894 42.431744 -1.3
-70.978850 42.431864 -0.6
-70.979119 42.432025 -1.5
-70.979388 42.432186 -1.2
-70.978469 42.432505 -1.3
-70.978730 42.432589 -1.6
-70.979144 42.432353 -1.2
-70.979433 42.432533 -0.9
-70.979719 42.432383 -0.9
-70.979658 42.432347 -1.2
-70.979927 42.432508 -0.6
-70.978316 42.432822 -1.2
-70.978866 42.432603 -1.6
-70.979147 42.432686 -1.2
-70.979266 42.432703 -1.0
-70.979666 42.432800 0.1
-70.977902 42.433058 -0.9
-70.978297 42.433147 -2.0
-70.979038 42.433086 -0.3
-70.977488 42.433294 -0.6
-70.977527 42.433414 -1.0
-70.978013 42.433300 -2.0
-70.978502 42.433422 -1.1
-70.980777 42.430833 -0.9
-70.981636 42.430828 -1.6
-70.981133 42.431055 -1.2
-70.981977 42.431019 -1.5
-70.980183 42.431355 -1.3
-70.981252 42.431389 -1.2
-70.981488 42.431278 -1.5
-70.982416 42.431447 -2.9
-70.980441 42.431555 -0.9
-70.980752 42.431725 -1.2
-70.980700 42.431758 -1.3
-70.981002 42.431558 -1.2
-70.981847 42.431708 -0.5
-70.981844 42.431503 -1.2
-70.982200 42.431725 -0.5
-70.980180 42.431953 -1.5
-70.980502 42.431894 -1.2
-70.980961 42.431958 -0.7
-70.981280 42.431969 -0.5
-70.980252 42.432061 -1.1
-70.980466 42.432161 -0.7
-70.980713 42.432228 -0.2
-70.980144 42.432489 0.0
-70.983038 42.417008 -0.9
-70.983672 42.417014 -0.7
-70.984902 42.416994 -0.5
-70.985502 42.416969 -0.2
-70.983388 42.417864 -0.5
-70.984002 42.417883 -0.2
-70.983408 42.418586 -0.3
-70.984013 42.418586 -0.2
-70.984616 42.418586 0.0
-70.983388 42.419005 -0.2
-70.984088 42.418991 -0.1
-70.986102 42.416944 0.1
-70.983247 42.419686 0.0
-70.983858 42.419697 0.2
-70.984469 42.419708 0.3
-70.982888 42.420047 0.2
-70.983455 42.420053 0.2
-70.984019 42.420058 0.3
-70.983569 42.430586 1.3
-70.983744 42.430647 1.1
-70.982941 42.430719 -0.1
-70.939899 42.433986 0.2
-70.940596 42.434014 -0.2
-70.939360 42.434736 0.2
-70.940076 42.434744 0.1
-70.940793 42.434750 0.1
-70.939793 42.435397 0.2
-70.940487 42.435389 0.2
-70.939649 42.436119 0.4
-70.940290 42.436103 -0.1
-70.940929 42.436086 0.2
-70.941293 42.434044 -0.3
-70.941987 42.434075 -0.3
-70.942685 42.434103 -1.0
-70.941510 42.434755 -0.1
-70.942226 42.434764 -0.4
-70.943687 42.434778 -1.2
-70.941876 42.435372 -0.1
-70.943282 42.435347 -0.8
-70.941182 42.435380 -0.3
-70.941571 42.436072 -0.1
-70.942210 42.436055 -0.1
-70.943543 42.436019 -0.3
-70.946526 42.433497 -7.1
-70.944101 42.434139 -1.9
-70.944821 42.434141 -2.8
-70.945543 42.434147 -4.1
-70.946146 42.434011 -7.1
-70.946262 42.434153 -7.3
-70.945765 42.434522 -7.3
-70.946696 42.434539 -6.6
-70.944435 42.434786 -2.0
-70.945179 42.434794 -3.2
-70.945924 42.434803 -7.6
-70.946668 42.434811 -6.3
-70.945382 42.435036 -7.1
-70.946374 42.435041 -6.9
-70.943993 42.435328 -1.2
-70.944701 42.435308 -2.0
-70.945412 42.435289 -7.6
-70.946124 42.435272 -7.3
-70.946054 42.435547 -6.9
-70.944235 42.436003 -0.5
-70.944749 42.436094 -7.1
-70.944926 42.435983 -7.2
-70.945296 42.435972 -7.7
-70.945618 42.435964 -7.3
-70.945987 42.435955 -7.0
-70.946312 42.435947 -3.0
-70.947337 42.433528 -5.8
-70.949477 42.433533 0.0
-70.946982 42.434158 -5.6
-70.947015 42.434033 -6.3
-70.948376 42.434150 0.0
-70.949052 42.434139 0.0
-70.949461 42.434039 0.0
-70.949444 42.434547 0.0
-70.948140 42.434822 -0.1
-70.948866 42.434822 0.1
-70.949430 42.435053 0.0
-70.947524 42.435261 0.2
-70.948216 42.435269 -0.1
-70.948905 42.435278 0.2
-70.949413 42.435561 0.0
-70.947671 42.435919 0.1
-70.948338 42.435911 -0.2
-70.949005 42.435903 0.4
-70.942235 42.436725 0.2
-70.942932 42.436722 0.2
-70.943629 42.436719 0.1
-70.942262 42.437628 0.3
-70.942943 42.437641 0.3
-70.943626 42.437655 -0.2
-70.942924 42.438291 0.1
-70.943646 42.438305 -6.1
-70.943746 42.438278 -6.6
-70.944324 42.436716 -3.8
-70.944649 42.436716 -7.2
-70.944499 42.436639 -7.1
-70.945021 42.436714 -7.6
-70.945440 42.436558 -7.3
-70.945346 42.436714 -7.6
-70.946410 42.436730 0.1
-70.944249 42.437186 -6.9
-70.945149 42.437066 -7.4
-70.944857 42.437575 -7.4
-70.943999 42.437730 -6.9
-70.943943 42.437661 -7.1
-70.944307 42.437669 -7.3
-70.944987 42.437683 -7.5
-70.946329 42.437686 0.2
-70.944565 42.438083 -7.4
-70.944365 42.438319 -7.4
-70.945085 42.438336 -5.2
-70.945804 42.438350 0.1
-70.944274 42.438589 -7.2
-70.947104 42.436747 0.2
-70.949386 42.436605 0.0
-70.947797 42.436764 -0.1
-70.948491 42.436783 0.2
-70.949186 42.436800 0.4
-70.949372 42.437144 0.3
-70.946991 42.437678 0.2
-70.947650 42.437666 0.3
-70.948311 42.437658 0.3
-70.948969 42.437647 0.2
-70.949358 42.437683 0.3
-70.947211 42.438372 0.3
-70.947897 42.438378 0.1
-70.948580 42.438383 0.1
-70.949344 42.438222 0.2
-70.949266 42.438391 0.3
-70.949330 42.438758 0.0
-70.940546 42.441466 1.2
-70.942785 42.439116 -4.6
-70.943165 42.439111 -6.7
-70.943499 42.439108 -7.2
-70.943249 42.439361 -6.6
-70.942632 42.439680 -3.5
-70.943365 42.439714 -6.7
-70.943682 42.439619 -6.8
-70.943004 42.439900 -6.4
-70.943382 42.440139 -7.2
-70.942210 42.440419 -4.9
-70.942757 42.440436 -6.0
-70.942943 42.440425 -6.2
-70.943676 42.440433 -7.5
-70.943082 42.440661 -6.4
-70.941699 42.440989 -0.2
-70.942512 42.440975 -6.0
-70.942782 42.441183 -6.4
-70.943099 42.441000 -6.4
-70.943804 42.441003 -5.7
-70.941160 42.441469 0.2
-70.941640 42.441469 -5.4
-70.941932 42.441472 -5.7
-70.942765 42.441475 -6.6
-70.943521 42.441478 -5.4
-70.943779 42.441478 -5.7
-70.942265 42.441514 -6.0
-70.942482 42.441703 -5.8
-70.944212 42.439100 -6.9
-70.944926 42.439091 -3.6
-70.946308 42.439083 0.3
-70.944099 42.439747 -7.3
-70.944440 42.439764 -7.6
-70.944832 42.439780 -4.5
-70.945562 42.439814 0.2
-70.944410 42.440439 -6.4
-70.945140 42.440447 0.1
-70.946580 42.440475 0.7
-70.944512 42.441003 -2.6
-70.945218 42.441005 0.2
-70.945925 42.441008 1.2
-70.944354 42.441480 -0.1
-70.944826 42.441480 -0.6
-70.946272 42.441478 -0.1
-70.946972 42.439078 0.1
-70.947638 42.439075 0.1
-70.948302 42.439072 0.7
-70.948969 42.439069 0.5
-70.949319 42.439297 0.3
-70.946983 42.439858 -0.1
-70.947669 42.439869 0.1
-70.948352 42.439880 0.2
-70.949038 42.439891 0.2
-70.949305 42.439836 0.3
-70.947286 42.440497 0.1
-70.947991 42.440522 0.0
-70.948697 42.440544 0.0
-70.949402 42.440566 0.1
-70.949288 42.440897 0.2
-70.947333 42.441014 0.0
-70.948033 42.441016 -0.2
-70.948736 42.441019 -0.2
-70.949436 42.441025 0.2
-70.947002 42.441475 -0.2
-70.947733 42.441469 -0.1
-70.948466 42.441464 -0.1
-70.949288 42.441422 0.0
-70.940807 42.441983 1.4
-70.941085 42.441994 -5.0
-70.941107 42.442844 -5.2
-70.940796 42.443722 -6.2
-70.940646 42.444233 -5.3
-70.941987 42.442005 -5.7
-70.942196 42.442005 -7.2
-70.942615 42.442003 -5.7
-70.943240 42.442003 -1.9
-70.943868 42.442000 0.5
-70.941712 42.442833 -6.8
-70.942035 42.442761 -7.2
-70.942118 42.442825 -8.0
-70.942321 42.442819 -4.0
-70.942521 42.442816 -0.1
-70.942926 42.442808 -3.6
-70.943532 42.442797 -0.9
-70.941887 42.443297 -6.5
-70.941432 42.443672 -7.0
-70.941729 42.443647 -6.8
-70.942068 42.443619 -0.1
-70.942704 42.443569 -0.1
-70.943001 42.443544 -3.9
-70.941740 42.443833 -5.9
-70.941237 42.444228 -7.2
-70.941629 42.444225 -6.9
-70.941826 42.444225 -2.2
-70.942415 42.444222 1.4
-70.943004 42.444216 0.3
-70.941593 42.444372 -6.5
-70.944493 42.442000 0.9
-70.945988 42.442005 0.0
-70.944730 42.442783 1.3
-70.945322 42.442780 1.3
-70.945913 42.442780 1.0
-70.946508 42.442778 1.0
-70.943985 42.443508 -0.6
-70.944627 42.443500 0.4
-70.944841 42.443497 1.0
-70.945272 42.443491 0.4
-70.945913 42.443483 0.2
-70.946558 42.443475 0.2
-70.944208 42.444203 -0.7
-70.944822 42.444191 0.0
-70.945436 42.444180 0.0
-70.946050 42.444169 0.3
-70.946663 42.444161 0.3
-70.946852 42.442011 0.2
-70.947719 42.442016 -0.1
-70.948586 42.442025 0.0
-70.949286 42.441947 0.2
-70.949283 42.442469 0.3
-70.947100 42.442778 0.7
-70.948311 42.442772 -0.1
-70.948930 42.442766 -0.1
-70.947844 42.443469 -0.1
-70.948486 42.443475 -0.1
-70.949127 42.443478 -0.1
-70.949300 42.443528 0.5
-70.947897 42.444141 0.0
-70.948516 42.444133 0.0
-70.949136 42.444125 -0.2
-70.949316 42.444061 0.2
-70.940737 42.444797 -7.0
-70.941026 42.444800 -7.5
-70.940721 42.445283 -7.3
-70.941001 42.446086 -7.1
-70.940546 42.446728 -6.8
-70.941099 42.446539 -6.5
-70.940924 42.446736 -7.3
-70.941046 42.447097 -6.8
-70.941354 42.444800 -7.0
-70.941971 42.444803 0.8
-70.942260 42.444803 1.2
-70.942590 42.444803 0.8
-70.942876 42.444805 1.2
-70.943841 42.444803 -3.5
-70.941446 42.444908 -6.5
-70.941374 42.445308 -5.7
-70.942026 42.445333 0.9
-70.942682 42.445355 1.1
-70.941299 42.445444 -6.5
-70.943335 42.445380 1.0
-70.941574 42.446083 -0.5
-70.942149 42.446080 0.4
-70.942721 42.446078 0.8
-70.943888 42.446080 1.3
-70.941257 42.446747 -6.2
-70.941732 42.446761 0.7
-70.941968 42.446766 0.4
-70.942679 42.446786 0.5
-70.944475 42.444800 -1.4
-70.945108 42.444797 -0.4
-70.945744 42.444794 0.0
-70.946377 42.444791 0.0
-70.944372 42.445400 -3.3
-70.944708 42.445397 -2.7
-70.945425 42.445391 -0.3
-70.946141 42.445386 -0.3
-70.944483 42.446089 0.7
-70.945075 42.446097 -1.8
-70.945352 42.446100 -3.0
-70.945669 42.446105 -3.2
-70.946261 42.446111 -1.8
-70.944091 42.446833 0.7
-70.944791 42.446858 0.4
-70.945488 42.446883 0.7
-70.946188 42.446908 -0.1
-70.947644 42.444789 0.2
-70.948277 42.444789 0.2
-70.948911 42.444789 -0.1
-70.949333 42.444591 0.2
-70.947575 42.445372 -0.2
-70.948994 42.445361 -0.3
-70.949350 42.445125 0.0
-70.946858 42.445380 -0.3
-70.949366 42.445658 -0.2
-70.949375 42.445908 -0.3
-70.947605 42.446133 -1.2
-70.948358 42.446144 -1.2
-70.949108 42.446158 -1.5
-70.949383 42.446191 -1.9
-70.949391 42.446439 -1.6
-70.946886 42.446933 -2.4
-70.948291 42.446980 -0.1
-70.948997 42.447005 -0.1
-70.949413 42.447244 0.0
-70.940393 42.447344 -6.5
-70.940996 42.447355 -7.4
-70.940993 42.447655 -7.2
-70.940365 42.447980 -1.9
-70.941054 42.447989 -7.5
-70.940943 42.448214 -7.3
-70.940271 42.448697 -0.1
-70.940874 42.448711 -7.1
-70.940568 42.449025 -0.4
-70.940385 42.449472 -0.1
-70.940993 42.449533 -2.9
-70.941601 42.447366 -0.2
-70.941801 42.447369 0.8
-70.942204 42.447378 0.4
-70.942808 42.447389 0.5
-70.943413 42.447400 0.7
-70.941743 42.448000 -0.2
-70.942433 42.448008 0.5
-70.943825 42.448041 0.6
-70.941276 42.448719 -7.4
-70.941476 42.448725 -6.8
-70.942080 42.448739 -0.2
-70.943272 42.448778 0.4
-70.943861 42.448805 0.5
-70.941168 42.449061 -7.0
-70.941568 42.449086 -7.5
-70.941769 42.449097 -6.6
-70.942366 42.449133 -0.1
-70.942566 42.449147 0.8
-70.943550 42.449225 0.5
-70.941162 42.449278 -6.8
-70.941433 42.449780 -6.7
-70.941600 42.449594 -6.8
-70.941802 42.449614 -6.0
-70.942819 42.449708 1.0
-70.943433 42.449766 0.4
-70.944711 42.447416 0.7
-70.945408 42.447422 0.5
-70.946102 42.447430 0.2
-70.944527 42.448066 0.6
-70.945230 42.448089 0.6
-70.945936 42.448114 0.6
-70.946638 42.448136 0.3
-70.944450 42.448833 0.5
-70.945038 42.448861 0.5
-70.945627 42.448889 0.4
-70.944133 42.449278 0.4
-70.944719 42.449333 0.4
-70.945302 42.449386 0.4
-70.946472 42.449458 0.3
-70.944044 42.449822 0.4
-70.944655 42.449878 0.3
-70.945269 42.449933 0.3
-70.946486 42.450025 0.3
-70.946797 42.447436 -0.1
-70.947122 42.447439 -2.3
-70.947494 42.447441 -0.1
-70.948902 42.447453 0.4
-70.949427 42.447766 0.2
-70.947716 42.448172 -2.0
-70.948041 42.448183 0.7
-70.948744 42.448205 0.2
-70.949444 42.448230 0.4
-70.949441 42.448289 0.3
-70.946805 42.448941 0.4
-70.947391 42.448966 -0.1
-70.949455 42.448811 0.0
-70.947980 42.448991 0.1
-70.948294 42.449003 -1.8
-70.948569 42.449016 0.0
-70.949158 42.449039 0.1
-70.947058 42.449475 0.1
-70.947644 42.449491 0.1
-70.948230 42.449511 0.1
-70.948502 42.449516 -1.5
-70.948816 42.449528 -0.2
-70.949469 42.449333 0.0
-70.949402 42.449544 0.1
-70.947088 42.450061 0.2
-70.949727 42.434128 -0.2
-70.950402 42.434116 -0.3
-70.951077 42.434103 -0.3
-70.949591 42.434825 -0.2
-70.950316 42.434825 -0.4
-70.951041 42.434828 -0.4
-70.949597 42.435286 -0.1
-70.950286 42.435294 -0.4
-70.951677 42.435347 -0.4
-70.949672 42.435894 -0.2
-70.950341 42.435883 -0.2
-70.951705 42.435889 -0.5
-70.952458 42.434094 -0.7
-70.953166 42.434097 -1.0
-70.953872 42.434100 -1.0
-70.954580 42.434103 -0.3
-70.954572 42.434228 -0.5
-70.954613 42.434661 -0.5
-70.952508 42.434836 -0.4
-70.953250 42.434841 -0.7
-70.953991 42.434847 -0.2
-70.954658 42.435091 -0.8
-70.954733 42.434855 -0.9
-70.952377 42.435389 -0.3
-70.953077 42.435430 -0.3
-70.953777 42.435475 -0.4
-70.954475 42.435516 -0.8
-70.954702 42.435525 -0.8
-70.952402 42.435900 -0.5
-70.953100 42.435911 -0.5
-70.953797 42.435922 -0.5
-70.954744 42.435955 -0.9
-70.954494 42.435933 -0.6
-70.955286 42.434105 -1.0
-70.956036 42.434119 -1.5
-70.956686 42.434122 -2.0
-70.957375 42.434133 -2.8
-70.957744 42.434141 -3.3
-70.957797 42.434178 -3.2
-70.956011 42.434575 -1.7
-70.956844 42.434805 -2.3
-70.957700 42.434633 -3.2
-70.955475 42.434861 -1.3
-70.955986 42.435030 -1.8
-70.956475 42.434819 -2.2
-70.956952 42.434889 -2.4
-70.957605 42.435086 -3.0
-70.957686 42.434908 -3.3
-70.956480 42.435228 -2.2
-70.956913 42.435228 -2.4
-70.955872 42.435605 -2.0
-70.955961 42.435486 -2.0
-70.956566 42.435650 -2.6
-70.956488 42.435633 -2.5
-70.956983 42.435650 -2.4
-70.957511 42.435539 -2.8
-70.957261 42.435697 -2.9
-70.957586 42.435719 -3.2
-70.955875 42.435980 -2.1
-70.955936 42.435941 -2.0
-70.956494 42.436041 -2.5
-70.956558 42.436016 -3.9
-70.957050 42.436072 -2.7
-70.957238 42.436050 -3.2
-70.957413 42.435994 -2.8
-70.958294 42.433533 -2.9
-70.958066 42.434147 -2.9
-70.958308 42.434091 -2.3
-70.958758 42.434161 -0.4
-70.959447 42.434175 -0.1
-70.958422 42.434930 0.1
-70.959158 42.434950 -0.1
-70.959891 42.434972 -0.1
-70.958305 42.435153 0.2
-70.957958 42.435741 0.2
-70.958291 42.435653 0.2
-70.958652 42.435789 0.2
-70.960041 42.435841 0.2
-70.957922 42.436086 0.3
-70.958275 42.436155 0.4
-70.960822 42.434189 -0.1
-70.961505 42.434191 -0.1
-70.962188 42.434191 -0.1
-70.962872 42.434194 -0.1
-70.961350 42.435003 -0.1
-70.962075 42.435011 -0.1
-70.962800 42.435022 -0.1
-70.960733 42.435847 0.2
-70.961425 42.435855 0.2
-70.962116 42.435861 0.0
-70.962808 42.435866 0.2
-70.963555 42.434194 0.1
-70.963525 42.435030 0.2
-70.964247 42.435039 0.2
-70.950588 42.436814 -0.4
-70.951300 42.436811 -0.4
-70.952011 42.436808 -0.4
-70.950316 42.437630 -0.3
-70.951002 42.437622 -0.3
-70.951688 42.437614 -0.3
-70.949722 42.438394 0.4
-70.949950 42.438397 0.1
-70.951350 42.438411 -0.2
-70.952066 42.438416 -0.2
-70.952719 42.436805 -0.4
-70.953430 42.436803 -0.5
-70.954861 42.436803 -1.3
-70.953061 42.437594 -0.5
-70.954441 42.437578 -1.2
-70.952375 42.437603 -0.5
-70.952783 42.438422 -0.4
-70.953500 42.438430 -0.5
-70.954213 42.438436 -0.9
-70.956502 42.436447 -2.8
-70.957119 42.436491 -2.8
-70.955580 42.436805 -2.0
-70.956297 42.436808 -2.5
-70.957016 42.436811 -3.2
-70.957355 42.436891 -3.1
-70.957352 42.436811 -3.2
-70.957736 42.436814 0.0
-70.955136 42.437569 -1.5
-70.955830 42.437558 -2.3
-70.956525 42.437550 -3.4
-70.957219 42.437541 -3.4
-70.957391 42.437336 -3.1
-70.957427 42.437780 -3.4
-70.957463 42.438225 -3.4
-70.957769 42.438428 -0.1
-70.955641 42.438439 -1.8
-70.956350 42.438433 -3.0
-70.957061 42.438430 -3.7
-70.957391 42.438430 -4.3
-70.957502 42.438666 -4.1
-70.958258 42.436658 0.5
-70.958241 42.437161 0.5
-70.957913 42.437533 0.4
-70.958205 42.438197 0.4
-70.958480 42.438425 0.7
-70.958188 42.438733 0.4
-70.949866 42.439066 0.5
-70.950330 42.439072 0.2
-70.951027 42.439078 -0.1
-70.951725 42.439086 -0.1
-70.949725 42.439903 0.2
-70.950044 42.439908 0.5
-70.951122 42.439925 -0.1
-70.951833 42.439933 -0.1
-70.950847 42.440628 0.0
-70.951583 42.440664 0.0
-70.949763 42.441025 0.6
-70.950138 42.441028 0.3
-70.949902 42.441458 0.5
-70.950608 42.441458 -0.1
-70.951313 42.441458 0.2
-70.952016 42.441458 -0.1
-70.952422 42.439094 -0.1
-70.953119 42.439100 -0.4
-70.954516 42.439128 -0.9
-70.952547 42.439941 -0.2
-70.953258 42.439953 -0.2
-70.953969 42.439961 -0.4
-70.952319 42.440703 -0.1
-70.953058 42.440739 -0.2
-70.953794 42.440778 -0.3
-70.952722 42.441455 -0.1
-70.954133 42.441436 -0.4
-70.954838 42.441416 -0.2
-70.955213 42.439147 -1.4
-70.955913 42.439164 -1.1
-70.956611 42.439183 -3.5
-70.957308 42.439203 -4.8
-70.957741 42.439530 -4.7
-70.955386 42.439978 -0.6
-70.956091 42.439983 -0.1
-70.956794 42.439989 -0.7
-70.957500 42.439997 -4.8
-70.955277 42.440850 0.1
-70.956025 42.440889 0.0
-70.956772 42.440925 -0.2
-70.957119 42.440941 0.4
-70.957516 42.440961 -1.5
-70.955541 42.441397 -0.1
-70.956247 42.441378 0.2
-70.956622 42.441366 0.5
-70.956952 42.441358 -0.1
-70.957658 42.441339 -0.4
-70.958008 42.439222 0.6
-70.958169 42.439266 0.5
-70.958152 42.439803 0.2
-70.957827 42.440000 -5.4
-70.957941 42.439950 -5.0
-70.958205 42.440003 -0.1
-70.958144 42.440369 -5.6
-70.958133 42.440336 -3.9
-70.958347 42.440789 -6.2
-70.958263 42.441000 -6.4
-70.958361 42.441319 -6.0
-70.958130 42.441419 -2.6
-70.958597 42.441311 -6.6
-70.958644 42.441403 -6.5
-70.958550 42.441208 -6.4
-70.959066 42.441300 -2.3
-70.950166 42.442022 0.5
-70.950883 42.442016 0.0
-70.951600 42.442008 0.2
-70.949547 42.442764 0.4
-70.950166 42.442758 0.4
-70.950786 42.442755 0.2
-70.952027 42.442758 -0.1
-70.949769 42.443483 0.4
-70.950411 42.443486 -0.2
-70.951691 42.443497 -0.2
-70.949755 42.444116 0.0
-70.950375 42.444108 0.3
-70.951616 42.444091 0.0
-70.952236 42.444083 0.0
-70.952316 42.442003 0.0
-70.953033 42.441994 0.0
-70.954458 42.441978 0.0
-70.954866 42.442328 0.1
-70.952650 42.442764 -0.1
-70.953272 42.442772 -0.1
-70.953894 42.442778 -0.1
-70.954513 42.442786 -0.1
-70.952330 42.443508 -0.1
-70.952969 42.443516 -0.1
-70.953608 42.443525 0.2
-70.954247 42.443533 0.2
-70.952855 42.444072 0.0
-70.953475 42.444064 0.0
-70.954094 42.444055 0.0
-70.955166 42.441966 0.0
-70.955875 42.441955 0.3
-70.956583 42.441947 0.6
-70.957291 42.441936 0.0
-70.955436 42.442314 0.1
-70.956005 42.442300 0.4
-70.956575 42.442286 0.7
-70.957144 42.442272 0.7
-70.955747 42.442803 0.4
-70.956358 42.442814 0.7
-70.956969 42.442825 0.7
-70.957252 42.442830 1.0
-70.957580 42.442836 -0.1
-70.956983 42.443286 0.4
-70.957472 42.443403 -0.6
-70.957711 42.443333 -0.6
-70.955530 42.443505 -0.1
-70.956177 42.443472 -0.1
-70.956825 42.443436 -0.2
-70.955333 42.444050 0.5
-70.955952 42.444053 -0.7
-70.956283 42.444055 0.3
-70.956572 42.444058 -0.7
-70.957188 42.444061 -0.3
-70.957808 42.444064 0.3
-70.956150 42.444408 0.2
-70.956713 42.444411 -0.7
-70.957275 42.444411 -0.4
-70.958144 42.441969 -0.5
-70.958669 42.441939 -2.0
-70.959338 42.441953 -5.9
-70.959291 42.441791 -5.3
-70.959833 42.441958 -4.4
-70.960008 42.441964 -3.9
-70.958288 42.442275 -0.5
-70.958863 42.442294 -1.3
-70.959438 42.442314 -4.6
-70.960372 42.442125 -4.1
-70.958158 42.442519 -0.7
-70.960013 42.442333 -4.3
-70.960588 42.442350 -3.9
-70.958191 42.442847 -0.6
-70.959438 42.442872 -1.2
-70.958172 42.443069 -0.1
-70.960075 42.442886 -2.4
-70.958119 42.443366 -0.2
-70.958436 42.443378 -0.3
-70.959161 42.443425 -0.4
-70.959377 42.443339 -0.1
-70.959988 42.443344 -0.2
-70.960602 42.443350 -1.5
-70.958186 42.443616 -0.7
-70.959888 42.443472 -0.4
-70.959069 42.444100 -0.3
-70.959708 42.444130 -0.7
-70.960350 42.444161 0.0
-70.957836 42.444411 -0.4
-70.958397 42.444411 -0.3
-70.959563 42.444397 -0.4
-70.960172 42.444380 -0.1
-70.960677 42.441978 -1.6
-70.960913 42.442289 -3.9
-70.961452 42.442455 -4.1
-70.961655 42.442358 -2.7
-70.962150 42.442344 -1.5
-70.962641 42.442333 0.4
-70.963136 42.442322 0.8
-70.962583 42.442764 -4.1
-70.960713 42.442900 -3.5
-70.961352 42.442914 -3.7
-70.961988 42.442928 -4.0
-70.963263 42.442928 -4.0
-70.963172 42.442905 -4.1
-70.961213 42.443355 -1.8
-70.961825 42.443361 -2.0
-70.962952 42.443386 -2.6
-70.963294 42.443397 -0.8
-70.961422 42.443553 -0.7
-70.962230 42.443586 -1.6
-70.963038 42.443622 -0.7
-70.960988 42.444194 0.0
-70.961630 42.444225 0.0
-70.962855 42.444230 0.2
-70.960777 42.444366 0.2
-70.961383 42.444350 0.2
-70.961988 42.444336 -0.1
-70.963627 42.442311 0.4
-70.965713 42.442611 -1.6
-70.963761 42.443047 -4.2
-70.963902 42.442914 -3.3
-70.965572 42.443144 -2.5
-70.965644 42.442878 -3.1
-70.963466 42.443403 -1.1
-70.963983 42.443422 -3.0
-70.964213 42.443264 -3.8
-70.964350 42.443189 -3.8
-70.964938 42.443330 -4.4
-70.963847 42.443655 -2.3
-70.964655 42.443691 -2.3
-70.964497 42.443439 -4.0
-70.964983 42.443441 -4.5
-70.965013 42.443458 -5.2
-70.965527 42.443475 -3.9
-70.965755 42.443616 -4.8
-70.965386 42.443711 -3.0
-70.963444 42.444208 0.1
-70.964030 42.444183 -0.2
-70.964616 42.444158 -1.3
-70.965269 42.444011 -2.1
-70.965155 42.444314 -2.1
-70.949544 42.444789 0.2
-70.950177 42.444789 0.2
-70.951452 42.444811 0.2
-70.952091 42.444833 -0.1
-70.949694 42.445353 0.0
-70.950397 42.445347 0.1
-70.951097 42.445339 -0.3
-70.951797 42.445333 -0.3
-70.951050 42.445689 -0.5
-70.951677 42.445700 -0.3
-70.949861 42.446169 -1.2
-70.950611 42.446183 -0.9
-70.952094 42.446211 -0.2
-70.949702 42.447028 -0.1
-70.950408 42.447050 -0.1
-70.951113 42.447072 -0.2
-70.952733 42.444855 -0.1
-70.953372 42.444878 -0.1
-70.954011 42.444897 -0.4
-70.953205 42.445330 -0.3
-70.953911 42.445333 -0.2
-70.954616 42.445339 0.1
-70.952302 42.445708 -0.6
-70.952927 42.445719 -0.3
-70.953555 42.445730 -0.1
-70.954808 42.445758 0.0
-70.952822 42.446225 -0.3
-70.953552 42.446241 -0.1
-70.954283 42.446255 0.1
-70.955013 42.446272 0.1
-70.952552 42.447100 -0.6
-70.953288 42.447103 -0.5
-70.954025 42.447108 0.2
-70.954761 42.447111 -0.1
-70.955286 42.444947 0.2
-70.955919 42.444975 -0.1
-70.956552 42.445003 -0.6
-70.957186 42.445030 -1.0
-70.957819 42.445058 -0.4
-70.955319 42.445341 0.1
-70.956025 42.445344 0.0
-70.957408 42.445364 -1.2
-70.955433 42.445772 0.0
-70.956058 42.445789 0.2
-70.956686 42.445805 -0.6
-70.957311 42.445822 -0.6
-70.956469 42.446305 -1.2
-70.957197 42.446322 -1.3
-70.957580 42.446350 -0.9
-70.957027 42.446694 -0.6
-70.957294 42.447019 -4.4
-70.955497 42.447116 -0.2
-70.956230 42.447122 -1.5
-70.958238 42.444700 -0.2
-70.959061 42.445058 -0.1
-70.959672 42.445030 -0.7
-70.960280 42.445003 -0.1
-70.958277 42.445233 -0.4
-70.959236 42.445314 -0.3
-70.958086 42.445380 -0.5
-70.958763 42.445394 -0.5
-70.958316 42.445764 -0.7
-70.958477 42.445897 -1.0
-70.958686 42.445661 -0.3
-70.960152 42.445758 0.2
-70.958133 42.446005 -0.9
-70.959019 42.445955 -1.0
-70.959652 42.446094 0.2
-70.959561 42.446014 -0.1
-70.960100 42.446075 0.5
-70.957925 42.446341 -1.3
-70.958355 42.446297 -1.0
-70.958652 42.446361 -1.6
-70.959155 42.446430 0.3
-70.958375 42.446547 -0.7
-70.958394 42.446830 -1.2
-70.958658 42.446764 0.0
-70.959413 42.446897 0.6
-70.959066 42.447116 0.5
-70.961094 42.444964 1.3
-70.960891 42.444975 1.0
-70.961500 42.444947 0.2
-70.960650 42.445425 0.3
-70.963552 42.444633 -1.1
-70.963961 42.444666 -0.5
-70.964369 42.444697 -0.2
-70.964775 42.444728 -0.2
-70.965183 42.444761 -0.2
-70.949616 42.447455 -0.1
-70.950333 42.447461 -0.1
-70.951047 42.447464 -0.1
-70.951761 42.447469 -0.1
-70.950144 42.448253 0.2
-70.950844 42.448275 0.2
-70.950352 42.449064 0.1
-70.950958 42.449061 0.1
-70.951563 42.449061 0.3
-70.952169 42.449058 0.3
-70.950580 42.449578 0.1
-70.951175 42.449594 0.1
-70.951766 42.449608 0.3
-70.952205 42.449844 -0.9
-70.953169 42.447514 -0.2
-70.953863 42.447553 -0.1
-70.954558 42.447594 -0.1
-70.954863 42.448091 -0.3
-70.952280 42.448311 -0.1
-70.953013 42.448325 -0.1
-70.953747 42.448339 0.4
-70.954480 42.448353 -0.2
-70.954327 42.448444 -0.6
-70.953788 42.448794 -0.5
-70.954580 42.448864 -4.8
-70.952775 42.449058 0.1
-70.952727 42.449494 -0.9
-70.952358 42.449625 -0.3
-70.952952 42.449641 -1.8
-70.953483 42.449603 -5.6
-70.954355 42.449675 -4.8
-70.954833 42.449816 0.0
-70.952930 42.449972 -5.3
-70.953805 42.450050 -4.6
-70.954491 42.450039 0.2
-70.955938 42.447389 -0.6
-70.956752 42.447389 -4.5
-70.957616 42.447466 -2.8
-70.955252 42.447636 -0.6
-70.955402 42.447741 -0.6
-70.955947 42.447675 -1.2
-70.956208 42.447755 -4.8
-70.957075 42.447833 -3.4
-70.955666 42.448125 -4.8
-70.955213 42.448364 -4.9
-70.956533 42.448200 -3.4
-70.957319 42.448225 0.2
-70.955122 42.448494 -4.8
-70.955991 42.448566 -4.4
-70.956597 42.448683 0.0
-70.956958 42.448453 0.2
-70.955450 42.448930 -4.0
-70.956238 42.448914 0.2
-70.955877 42.449141 0.2
-70.955175 42.449594 0.2
-70.958372 42.447555 0.3
-70.958719 42.447336 0.5
-70.958025 42.447775 0.2
-70.976872 42.433900 -0.3
-70.977222 42.433830 -1.2
-70.976252 42.434086 0.4
-70.976694 42.434105 -0.8
-70.976966 42.434016 -1.5
-70.977136 42.434125 -1.9
-70.976666 42.434269 -0.9
-70.976516 42.434414 -1.2
-70.976888 42.434433 -1.2
-70.975638 42.434605 0.5
-70.976050 42.434647 -0.2
-70.976325 42.434622 -0.9
-70.976463 42.434641 -0.9
-70.976461 42.434686 -1.2
-70.976875 42.434728 -1.8
-70.976130 42.434833 -0.9
-70.976261 42.435011 -0.9
-70.975772 42.435264 -0.7
-70.975716 42.435230 -1.1
-70.976016 42.435230 -0.5
-70.976141 42.435280 -1.8
-70.976569 42.435330 -1.4
-70.975602 42.435486 -0.7
-70.976055 42.435383 -1.2
-70.976994 42.435380 -1.1
-70.975441 42.435678 -0.9
-70.975436 42.435705 -1.0
-70.975683 42.435689 -0.8
-70.975900 42.435764 -1.6
-70.976358 42.435847 -1.3
-70.974808 42.436036 -1.3
-70.975230 42.436097 -2.1
-70.975086 42.436144 -0.1
-70.975350 42.436150 -1.7
-70.975647 42.436133 -0.9
-70.975650 42.436158 -1.5
-70.976813 42.435930 -0.9
-70.977477 42.433641 -1.5
-70.977908 42.433450 -2.0
-70.978288 42.433486 -1.3
-70.978669 42.433519 -0.1
-70.979050 42.433555 0.8
-70.979430 42.433589 0.6
-70.979813 42.433625 0.5
-70.977963 42.433758 -1.7
-70.977427 42.434097 -1.7
-70.977577 42.434141 -1.7
-70.978016 42.434161 -0.5
-70.978458 42.434180 0.6
-70.977286 42.434766 -1.8
-70.977697 42.434808 -0.2
-70.978108 42.434850 -0.1
-70.978522 42.434889 0.4
-70.977419 42.435430 -0.2
-70.977847 42.435478 0.3
-70.977272 42.436014 0.2
-70.974066 42.436633 -3.4
-70.974405 42.436708 -1.6
-70.974363 42.437022 -1.3
-70.974180 42.437241 -1.0
-70.973527 42.437319 -3.1
-70.973958 42.437372 -1.0
-70.973997 42.437464 -1.0
-70.974386 42.437425 -0.7
-70.972950 42.437833 -2.0
-70.973272 42.437894 -3.2
-70.973441 42.438133 -0.5
-70.973594 42.437955 -0.4
-70.973627 42.437908 -0.5
-70.973916 42.438016 -0.4
-70.974072 42.438008 -0.2
-70.974238 42.438075 -1.0
-70.973008 42.438422 -2.0
-70.973255 42.438358 -1.1
-70.974436 42.438391 -0.4
-70.973375 42.438516 -1.4
-70.973797 42.438486 -0.8
-70.973741 42.438611 -1.1
-70.974108 42.438705 -0.5
-70.972272 42.438975 -3.2
-70.972947 42.438822 -1.9
-70.973525 42.438964 -0.5
-70.974244 42.438747 -0.1
-70.974472 42.438800 -0.3
-70.974908 42.436364 -0.7
-70.976072 42.436216 -1.2
-70.976491 42.436278 -0.6
-70.976911 42.436339 0.3
-70.974727 42.436580 -1.3
-70.975013 42.436611 -0.8
-70.975444 42.436514 -0.9
-70.974744 42.436780 -1.0
-70.975238 42.436894 -0.6
-70.975083 42.436855 -1.0
-70.975422 42.436930 -1.0
-70.975761 42.437005 -0.7
-70.974680 42.437069 -0.5
-70.975036 42.437275 -0.3
-70.976100 42.437080 -1.6
-70.974816 42.437478 -0.5
-70.975244 42.437528 -1.3
-70.975675 42.437580 0.2
-70.974830 42.437653 -0.6
-70.974561 42.438136 -1.2
-70.974883 42.438197 -0.4
-70.971594 42.441461 -1.2
-70.971600 42.441744 -2.2
-70.972616 42.439069 -2.6
-70.972822 42.439061 -1.7
-70.972961 42.439164 -1.1
-70.973305 42.439258 -0.5
-70.974055 42.439103 0.2
-70.972697 42.439300 -2.0
-70.973250 42.439441 -0.4
-70.973647 42.439353 -0.2
-70.973863 42.439461 0.2
-70.973991 42.439447 -0.2
-70.972119 42.439789 -2.8
-70.972475 42.439783 -2.1
-70.973675 42.439816 0.2
-70.974336 42.439541 0.1
-70.972491 42.439861 -2.2
-70.972375 42.440030 -2.3
-70.972977 42.439919 -0.4
-70.972863 42.439936 -0.9
-70.973233 42.440008 -0.5
-70.973605 42.440080 -0.2
-70.971880 42.440286 -1.5
-70.972272 42.440278 -2.6
-70.973977 42.440153 -0.2
-70.972252 42.440386 -2.5
-70.972622 42.440486 -0.9
-70.972994 42.440586 -0.5
-70.973261 42.440516 -0.2
-70.972405 42.440889 -1.3
-70.973036 42.440858 -0.2
-70.973366 42.440686 -0.2
-70.973736 42.440786 -0.1
-70.972322 42.441094 -2.1
-70.972813 42.441200 -0.5
-70.972686 42.441197 -0.9
-70.971855 42.441275 -2.9
-70.972108 42.441380 -2.1
-70.973050 42.441297 -0.5
-70.973411 42.441397 -0.1
-70.971916 42.441589 -2.4
-70.972236 42.441714 -2.4
-70.972588 42.441541 -0.7
-70.968650 42.442544 -1.2
-70.968672 42.442803 -1.6
-70.967197 42.443050 -1.3
-70.967044 42.443364 -1.9
-70.968063 42.443403 -1.3
-70.968683 42.443333 -0.5
-70.967930 42.443514 -2.0
-70.968361 42.443555 -1.6
-70.968688 42.443641 -4.7
-70.968675 42.443605 -2.0
-70.966527 42.443794 -4.5
-70.967300 42.443972 -4.8
-70.967816 42.443803 -3.9
-70.968316 42.443980 -4.3
-70.968655 42.443708 -1.6
-70.967797 42.443986 -4.2
-70.967783 42.444008 -4.4
-70.967702 42.444091 -4.4
-70.968172 42.444203 -3.3
-70.968147 42.444203 -4.4
-70.968611 42.444222 -3.1
-70.966583 42.444311 -2.8
-70.967588 42.444380 -3.2
-70.968550 42.444419 -1.7
-70.968644 42.444422 -3.7
-70.968511 42.444397 -3.8
-70.968908 42.444464 -1.4
-70.968752 42.444533 -1.0
-70.971450 42.441964 -2.0
-70.971297 42.442186 -2.0
-70.971425 42.442058 -1.5
-70.970727 42.442525 -1.9
-70.971513 42.442364 -2.1
-70.969236 42.442597 -2.6
-70.969825 42.442828 -1.4
-70.970822 42.442844 -2.6
-70.971050 42.442616 -2.3
-70.970983 42.442625 -2.5
-70.971216 42.442855 -2.1
-70.971372 42.442705 -2.5
-70.971694 42.442794 -2.8
-70.969255 42.442911 -2.9
-70.970291 42.443083 -2.2
-70.970058 42.442955 -1.9
-70.970658 42.443066 -2.6
-70.969433 42.443222 -1.9
-70.969275 42.443225 -2.0
-70.969769 42.443344 -2.2
-70.970525 42.443214 -2.5
-70.970758 42.443341 -3.0
-70.971516 42.443303 -2.3
-70.969294 42.443539 -2.6
-70.970105 42.443469 -2.5
-70.970441 42.443594 -3.4
-70.970991 42.443469 -2.3
-70.971305 42.443661 -0.1
-70.968952 42.443897 -5.3
-70.970780 42.443719 -2.8
-70.969216 42.444153 -5.0
-70.969572 42.444161 -4.4
-70.971097 42.444019 0.7
-70.969483 42.444408 -3.5
-70.969502 42.444425 -4.0
-70.969894 42.444308 -1.3
-70.971811 42.441872 -2.3
-70.972366 42.441883 -1.4
-70.972555 42.441839 -1.5
-70.972877 42.441966 -0.9
-70.971747 42.442241 -2.4
-70.971933 42.442583 -2.4
-70.972069 42.442425 -2.7
-70.972388 42.442608 -2.0
-70.971725 42.442941 -2.9
-70.966430 42.444628 -1.3
-70.967475 42.444666 -0.7
-70.967783 42.444630 -1.2
-70.968111 42.444775 -1.1
-70.968633 42.444694 -1.1
-70.968927 42.444636 -1.7
-70.968875 42.444591 -2.6
-70.968436 42.444922 -0.8
-70.968625 42.444966 -0.8
-70.968761 42.445066 -0.6
-70.969202 42.444705 -1.5
-70.969238 42.444786 -3.2
-70.969747 42.444666 -3.7
-70.969594 42.444711 -4.3
-70.969305 42.444850 -0.9
-70.969497 42.444947 -0.2
-70.969602 42.444983 -3.5
-70.969688 42.444997 -1.7
-70.969088 42.445214 -0.5
-70.969413 42.445361 -0.5
-70.969783 42.445286 -0.9
-70.969966 42.445178 -4.1
-70.970233 42.445172 -2.7
-70.970583 42.445236 -1.5
-70.969877 42.445572 -0.4
-70.970086 42.445422 -2.7
-70.970455 42.445425 -2.7
-70.970433 42.445480 -3.1
-70.970647 42.445555 -2.0
-70.970283 42.445725 -3.1
-70.970083 42.445664 -1.6
-70.970375 42.445655 -3.2
-70.970427 42.445819 -3.5
-70.970666 42.445889 -3.2
-70.970675 42.445675 -2.4
-70.970897 42.445925 -1.8
-70.971130 42.445869 -1.2
-70.970963 42.445741 -1.8
-70.971280 42.445925 -0.4
-70.970769 42.445978 -3.5
-70.970958 42.446122 -2.2
-70.971119 42.446178 -1.2
-70.971113 42.446133 -2.5
-70.971033 42.446153 -3.0
-70.971597 42.446108 -0.4
-70.970938 42.446433 -3.9
-70.971247 42.446355 -2.0
-70.971458 42.446291 -1.1
-70.970841 42.446715 -0.5
-70.971711 42.446588 -2.0
-70.971486 42.446799 -4.3
-70.971933 42.446378 -0.9
-70.971800 42.446447 -1.2
-70.971913 42.446294 -0.9
-70.971883 42.447127 -4.3
-70.972452 42.447354 -5.1
-70.973022 42.447582 -6.1
-70.973408 42.447546 -3.5
-70.973044 42.447740 -6.2
-70.973591 42.447813 -5.2
-70.973644 42.447685 -4.6
-70.973916 42.447843 -4.0
-70.973380 42.447893 -6.0
-70.973719 42.448046 -4.9
-70.974161 42.448040 -4.3
-70.974422 42.448140 -4.5
-70.973333 42.448190 -4.8
-70.974058 42.448196 -5.2
-70.974397 42.448349 -2.6
-70.973833 42.448440 -5.4
-70.974333 42.448690 -5.2
-70.974927 42.448438 -1.8
-70.974836 42.448940 -0.7
-70.975436 42.448735 -1.6
-70.975336 42.449188 -0.7
-70.975891 42.449063 -3.0
-70.976261 42.449240 -3.0
-70.975997 42.449518 -2.1
-70.976447 42.449310 -1.5
-70.976633 42.449421 -2.9
-70.976319 42.449679 -0.4
-70.976952 42.449588 -2.3
-70.977002 42.449599 -2.7
-70.976800 42.449918 -2.0
-70.977372 42.449779 -2.7
-70.977458 42.449865 -2.7
-70.977744 42.449957 -2.9
-70.940932 42.450286 -0.4
-70.941136 42.451100 0.9
-70.939690 42.451847 0.4
-70.940215 42.451864 0.7
-70.940741 42.451880 0.6
-70.939979 42.452408 -2.6
-70.940608 42.452466 -2.6
-70.939554 42.452858 0.3
-70.941558 42.450355 -6.6
-70.941705 42.450283 -6.5
-70.942186 42.450428 -7.3
-70.942811 42.450497 -3.0
-70.943438 42.450566 0.9
-70.941977 42.450786 -6.8
-70.941669 42.451130 -1.0
-70.942202 42.451158 -6.9
-70.942450 42.451172 -7.3
-70.942736 42.451189 -6.3
-70.942250 42.451289 -6.8
-70.943266 42.451216 -3.2
-70.941266 42.451900 0.6
-70.941544 42.451908 0.9
-70.941963 42.451922 -6.4
-70.941791 42.451916 -2.5
-70.942522 42.451791 -6.8
-70.942894 42.451964 -6.1
-70.943475 42.451994 -3.6
-70.942794 42.452297 -6.5
-70.941236 42.452522 -2.7
-70.941530 42.452550 -3.4
-70.942475 42.452630 -6.2
-70.943063 42.452800 -6.8
-70.943088 42.452680 -6.8
-70.943372 42.452703 -6.8
-70.943700 42.452730 -4.3
-70.944683 42.450689 0.2
-70.945302 42.450736 0.2
-70.945919 42.450786 0.2
-70.946538 42.450836 0.2
-70.944325 42.451291 0.5
-70.944850 42.451336 0.2
-70.945372 42.451383 0.2
-70.945897 42.451428 0.2
-70.946422 42.451475 0.8
-70.944055 42.452025 0.7
-70.944636 42.452055 0.4
-70.945216 42.452086 0.3
-70.946380 42.452169 0.5
-70.943986 42.452753 -4.3
-70.944311 42.452780 0.8
-70.944922 42.452829 0.5
-70.945208 42.452854 0.7
-70.947694 42.450097 0.2
-70.948297 42.450136 0.2
-70.948902 42.450172 -1.0
-70.947155 42.450886 0.3
-70.948391 42.450983 0.2
-70.949005 42.451030 0.0
-70.947488 42.451536 0.2
-70.948033 42.451553 0.2
-70.948577 42.451569 0.2
-70.949122 42.451586 -0.7
-70.949033 42.451893 -0.3
-70.946963 42.452225 0.5
-70.947547 42.452279 0.3
-70.948497 42.452221 0.0
-70.947958 42.452549 0.0
-70.948130 42.452335 0.2
-70.948711 42.452390 -0.1
-70.949188 42.452477 -0.1
-70.949294 42.452446 -0.1
-70.948680 42.452818 -0.1
-70.940100 42.452891 -2.4
-70.940647 42.452922 -2.7
-70.940747 42.453913 -2.5
-70.940927 42.454246 -2.7
-70.940636 42.454810 -2.7
-70.941147 42.454863 -2.9
-70.941191 42.452955 -3.0
-70.941480 42.453555 -3.0
-70.942116 42.453565 -2.9
-70.942752 42.453579 -5.6
-70.943388 42.453590 -6.8
-70.943727 42.453596 -7.1
-70.943686 42.453982 -6.7
-70.941277 42.454002 -2.5
-70.941755 42.454132 -2.6
-70.941808 42.454093 -3.1
-70.942341 42.454182 -2.8
-70.942380 42.454154 -3.0
-70.943002 42.454174 -5.5
-70.943627 42.454196 -6.4
-70.941491 42.454318 -2.1
-70.942055 42.454393 -2.7
-70.942872 42.454271 -5.5
-70.943138 42.454574 -5.5
-70.943658 42.454685 -5.8
-70.941658 42.454913 -2.1
-70.942169 42.454965 -2.1
-70.942680 42.455015 -3.6
-70.941325 42.455160 -2.1
-70.943769 42.455135 -5.9
-70.942369 42.455457 -2.1
-70.942877 42.455599 -5.4
-70.946133 42.452896 0.4
-70.944022 42.453602 -4.8
-70.945311 42.453632 0.0
-70.945966 42.453652 0.2
-70.946361 42.453577 -0.1
-70.946619 42.453668 0.0
-70.945838 42.453946 -0.4
-70.944250 42.454215 -6.7
-70.945466 42.454257 -0.8
-70.946516 42.454227 -5.1
-70.945319 42.454318 -4.1
-70.946061 42.454279 -4.2
-70.946652 42.454302 -5.5
-70.944177 42.454796 -6.2
-70.944036 42.454663 -6.2
-70.944797 42.454690 -5.7
-70.945944 42.454588 -6.0
-70.944277 42.455063 -5.8
-70.944697 42.454904 -5.3
-70.945372 42.454949 -5.4
-70.944383 42.455343 -5.9
-70.945066 42.455143 -1.7
-70.946733 42.452915 0.3
-70.947419 42.452877 0.3
-70.947333 42.452932 0.3
-70.947933 42.452949 0.2
-70.949441 42.453002 -5.9
-70.948169 42.453160 0.2
-70.948902 42.453365 -6.5
-70.947272 42.453685 0.3
-70.947925 42.453704 -5.8
-70.949313 42.453482 -6.8
-70.947088 42.453865 -1.9
-70.948941 42.453743 -6.9
-70.947247 42.454324 -6.1
-70.947838 42.454343 -6.4
-70.939750 42.455924 -3.1
-70.939933 42.455729 -3.3
-70.940811 42.455735 -3.0
-70.939566 42.456121 -0.5
-70.940252 42.456143 -3.2
-70.939811 42.456477 -2.9
-70.940094 42.456299 -3.2
-70.940388 42.456663 -3.3
-70.940761 42.456582 -2.9
-70.940163 42.456868 -3.2
-70.941316 42.455860 -2.2
-70.942908 42.455754 -5.3
-70.943386 42.455743 -5.7
-70.943897 42.455888 -5.7
-70.942352 42.456074 -2.1
-70.942600 42.456115 -2.1
-70.942813 42.456196 -4.6
-70.942883 42.456163 -5.0
-70.943413 42.456249 -5.5
-70.941300 42.456704 -2.9
-70.942663 42.456604 -2.1
-70.942722 42.456635 -2.4
-70.943225 42.456752 -5.6
-70.941836 42.456824 -2.2
-70.942375 42.456946 -1.9
-70.943783 42.456899 -5.7
-70.942911 42.457068 -2.5
-70.943197 42.457132 -5.7
-70.943900 42.457302 -5.7
-70.942566 42.457513 -3.4
-70.942538 42.457715 -4.0
-70.942508 42.457949 -3.4
-70.942447 42.458385 -2.4
-70.944405 42.456029 -5.7
-70.944733 42.456027 -5.3
-70.943947 42.456338 -5.5
-70.944477 42.456424 -5.7
-70.945083 42.456707 -5.5
-70.944344 42.457046 -5.9
-70.945186 42.457215 -0.9
-70.944350 42.457413 -5.4
-70.945450 42.457360 -0.1
-70.944475 42.457749 -3.5
-70.945058 42.457774 -0.5
-70.944419 42.458029 -1.7
-70.944361 42.458310 -0.3
-70.944947 42.458371 -2.4
-70.945361 42.458293 -0.3
-70.944305 42.458590 0.0
-70.944891 42.458668 -1.5
-70.944247 42.458871 -0.2
-70.944836 42.458968 -0.1
-70.950122 42.450244 0.0
-70.950736 42.450280 0.0
-70.951350 42.450316 -0.6
-70.951680 42.450191 -0.6
-70.951966 42.450353 -1.3
-70.951158 42.450541 -0.6
-70.950633 42.450889 -0.6
-70.951825 42.450711 -5.3
-70.949622 42.451080 -0.3
-70.950238 42.451128 -0.6
-70.950852 42.451178 -0.3
-70.951272 42.451080 -5.3
-70.952152 42.451177 -3.4
-70.949666 42.451603 -1.1
-70.949572 42.451564 -1.1
-70.952125 42.451574 0.1
-70.950208 42.451790 -2.6
-70.951061 42.451915 -5.7
-70.951788 42.451790 0.1
-70.949700 42.452132 -0.3
-70.950522 42.452277 -5.7
-70.949983 42.452640 -5.9
-70.952377 42.450341 -5.3
-70.954147 42.450261 0.4
-70.953255 42.450425 -2.9
-70.953805 42.450480 0.6
-70.952702 42.450803 -4.0
-70.953130 42.450921 0.0
-70.952794 42.451138 0.0
-70.952458 42.451354 0.1
-70.949686 42.453221 -6.6
-70.951061 42.453207 -2.7
-70.977283 42.450160 -0.4
-70.977963 42.450143 -2.9
-70.978113 42.450138 -2.7
-70.977766 42.450402 -0.6
-70.978247 42.450643 -0.9
-70.978469 42.450421 -3.2
-70.979925 42.450782 -1.8
-70.980063 42.450546 0.6
-70.980848 42.450729 -1.9
-70.981731 42.450754 -2.5
-70.980611 42.451035 -2.9
-70.981120 42.451018 -2.6
-70.981631 42.450999 -2.5
-70.980709 42.451313 -1.6
-70.981298 42.451440 -0.7
-70.981442 42.451213 -0.7
-70.981867 42.451449 -0.1
-70.982078 42.451257 -2.5
-70.982542 42.451465 -0.2
-70.982373 42.451665 -0.1
-70.982206 42.451868 0.9
-70.979642 42.454690 -0.1
-70.979984 42.454804 -2.5
-70.979478 42.455077 -2.6
-70.979784 42.455182 0.1
-70.979056 42.455524 -0.1
-70.979414 42.455602 -2.6
-70.982720 42.453910 -1.1
-70.980326 42.454413 -1.8
-70.980637 42.454538 -1.5
-70.981981 42.454404 -0.6
-70.980948 42.454660 0.3
-70.981259 42.454782 0.5
-70.982270 42.454549 0.3
-70.982562 42.454693 0.3
-70.980326 42.454918 0.2
-70.980667 42.455032 0.4
-70.981570 42.454904 0.5
-70.981881 42.455027 0.3
-70.980089 42.455288 0.2
-70.981009 42.455146 0.4
-70.981351 42.455260 0.2
-70.982192 42.455149 0.5
-70.980398 42.455396 0.2
-70.979776 42.455679 -0.4
-70.978659 42.456179 0.1
-70.978108 42.456396 0.4
-70.978384 42.456288 0.4
-70.979448 42.456296 -0.2
-70.977558 42.456613 0.7
-70.977833 42.456504 0.6
-70.979992 42.457088 0.5
-70.980403 42.456688 -1.8
-70.980612 42.456485 -0.2
-70.981131 42.456624 -0.3
-70.980198 42.456888 0.0
-70.981023 42.456857 -0.1
-70.980914 42.457090 -1.8
-70.981620 42.457054 -0.1
-70.981506 42.457268 -0.7
-70.980806 42.457321 0.3
-70.981395 42.457482 -1.6
-70.982184 42.457357 0.5
-70.982034 42.457568 -0.2
-70.981884 42.457779 -1.6
-70.982659 42.457846 -0.1
-70.982487 42.458074 0.2
-70.982312 42.458304 -0.4
-70.982139 42.458532 -0.7
-70.982720 42.458660 -0.3
-70.982914 42.451952 0.2
-70.982967 42.452454 1.1
-70.983251 42.452407 0.5
-70.983267 42.452807 0.7
-70.983295 42.452629 0.8
-70.983639 42.452674 -0.7
