-70.660215 43.009746 -23.9
-70.659887 43.009679 -24.5
-70.659568 43.009586 -25.0
-70.659835 43.009984 -24.4
-70.659582 43.009819 -25.2
-70.659609 43.010205 -24.8
-70.659039 43.009930 -25.4
-70.659263 43.010251 -24.9
-70.659208 43.010483 -24.2
-70.658911 43.010326 -25.2
-70.658591 43.010264 -25.1
-70.658946 43.010620 -24.7
-70.658273 43.010503 -24.7
-70.658224 43.010734 -24.0
-70.658035 43.010914 -24.6
-70.657669 43.010928 -25.1
-70.657435 43.011100 -25.7
-70.657229 43.011692 -25.6
-70.656859 43.011530 -25.8
-70.657248 43.011921 -23.6
-70.656914 43.011758 -25.7
-70.656610 43.012081 -26.1
-70.656360 43.011906 -25.4
-70.656122 43.012188 -26.0
-70.656478 43.012519 -26.1
-70.656049 43.012486 -25.9
-70.655774 43.012332 -25.5
-70.656168 43.012728 -25.9
-70.655528 43.012499 -25.3
-70.655754 43.012691 -25.6
-70.655521 43.012865 -25.3
-70.655668 43.013084 -25.3
-70.655200 43.012753 -24.7
-70.655298 43.013239 -24.4
-70.654850 43.013016 -24.2
-70.655093 43.013418 -24.3
-70.654553 43.013368 -23.1
-70.654691 43.013574 -22.3
-70.653769 43.013905 -21.4
-70.653874 43.014130 -20.6
-70.653288 43.014232 -20.8
-70.653312 43.014470 -21.2
-70.652957 43.014522 -19.8
-70.652952 43.014853 -20.5
-70.652641 43.015205 -19.6
-70.652416 43.015032 -18.4
-70.651810 43.015598 -17.0
-70.651474 43.015612 -17.2
-70.651222 43.015780 -18.3
-70.651343 43.016021 -18.8
-70.650962 43.015961 -19.2
-70.651129 43.016203 -20.1
-70.650722 43.016373 -19.6
-70.650541 43.016810 -20.5
-70.650103 43.016596 -20.8
-70.649986 43.016851 -20.5
-70.649853 43.017059 -21.4
-70.649668 43.017244 -23.1
-70.649342 43.017090 -22.9
-70.649652 43.017472 -22.4
-70.649344 43.017349 -23.2
-70.649023 43.017314 -22.8
-70.649056 43.017559 -24.1
-70.649150 43.017796 -26.1
-70.648744 43.017474 -24.7
-70.648666 43.017693 -25.7
-70.648927 43.017961 -26.8
-70.648465 43.018035 -25.2
-70.648530 43.018329 -27.4
-70.648039 43.017969 -25.8
-70.648180 43.018204 -23.5
-70.647789 43.018146 -26.3
-70.647977 43.018578 -25.3
-70.647710 43.018419 -23.8
-70.648223 43.019761 -27.4
-70.648532 43.019942 -27.9
-70.648779 43.020104 -27.7
-70.648775 43.019646 -27.8
-70.649101 43.019884 -27.6
-70.649363 43.019681 -27.5
-70.649131 43.019120 -28.3
-70.649590 43.019274 -28.4
-70.649357 43.018901 -27.8
-70.649921 43.019217 -27.6
-70.649674 43.018977 -28.0
-70.649681 43.018742 -28.0
-70.650145 43.019051 -27.3
-70.649963 43.018868 -27.7
-70.649988 43.018638 -27.5
-70.650425 43.018852 -27.1
-70.650303 43.018642 -27.0
-70.650404 43.018425 -26.5
-70.650665 43.018655 -26.4
-70.650804 43.018437 -25.7
-70.650743 43.018175 -25.0
-70.651075 43.018322 -24.7
-70.650744 43.017922 -24.0
-70.651258 43.018140 -23.8
-70.651260 43.017884 -22.5
-70.651563 43.017937 -21.4
-70.651351 43.017668 -21.7
-70.651850 43.017661 -21.0
-70.651668 43.017364 -20.7
-70.652070 43.017500 -20.8
-70.651936 43.017066 -20.1
-70.652531 43.016800 -20.1
-70.652962 43.016646 -19.5
-70.653195 43.016491 -18.9
-70.653824 43.015878 -18.0
-70.654235 43.015438 -19.3
-70.654646 43.015645 -22.0
-70.654478 43.015220 -19.9
-70.654996 43.015261 -22.4
-70.654835 43.015025 -21.3
-70.655013 43.014798 -23.1
-70.655229 43.014985 -21.2
-70.655466 43.014752 -22.6
-70.655683 43.014918 -21.1
-70.655826 43.014527 -24.6
-70.656122 43.014643 -23.8
-70.655787 43.014284 -24.9
-70.656275 43.014443 -24.9
-70.656094 43.014099 -24.8
-70.656580 43.014332 -24.7
-70.656394 43.013828 -22.9
-70.656887 43.014102 -24.1
-70.657049 43.013793 -26.1
-70.657088 43.013414 -26.5
-70.657388 43.013509 -27.2
-70.657463 43.013274 -25.2
-70.657686 43.013428 -27.3
-70.657422 43.013014 -26.2
-70.658065 43.013258 -26.7
-70.657988 43.012857 -25.7
-70.658301 43.013067 -26.3
-70.658323 43.012790 -27.2
-70.658154 43.012562 -26.4
-70.658690 43.012774 -26.0
-70.658331 43.012350 -24.6
-70.658929 43.012592 -26.0
-70.658838 43.012359 -26.5
-70.658927 43.012112 -26.5
-70.659339 43.012283 -25.6
-70.658994 43.011808 -26.5
-70.659301 43.012010 -26.4
-70.659589 43.012094 -25.9
-70.659330 43.011578 -26.3
-70.659723 43.011873 -26.4
-70.659768 43.011516 -26.2
-70.660086 43.011727 -26.5
-70.660250 43.011496 -27.3
-70.659929 43.011221 -26.9
-70.660134 43.011039 -26.0
-70.660525 43.011332 -27.6
-70.660509 43.011042 -27.8
-70.660356 43.010820 -25.7
-70.660777 43.011164 -27.8
-70.660908 43.010917 -27.4
-70.660995 43.010699 -26.9
-70.661231 43.010903 -26.5
-70.660848 43.010492 -26.6
-70.661361 43.010661 -25.8
-70.661156 43.010466 -25.9
-70.661665 43.010584 -24.4
-70.661457 43.010388 -24.9
-70.661334 43.010147 -25.1
-70.661800 43.010368 -23.4
-70.661712 43.010106 -24.5
-70.662039 43.010099 -22.8
-70.662399 43.010013 -22.7
-70.662207 43.009825 -24.8
-70.662122 43.009595 -25.3
-70.662439 43.009475 -25.6
-70.662734 43.009589 -25.7
-70.662561 43.009237 -26.3
-70.663042 43.009461 -25.7
-70.662892 43.009209 -26.1
-70.663255 43.009249 -26.3
-70.663328 43.009010 -26.1
-70.663198 43.008761 -25.8
-70.663659 43.009120 -25.8
-70.663638 43.008847 -25.8
-70.663518 43.008581 -25.5
-70.663993 43.008867 -25.4
-70.663858 43.008612 -25.4
-70.664199 43.008681 -25.3
-70.663856 43.008331 -25.1
-70.664550 43.008200 -25.3
-70.664360 43.007921 -25.5
-70.664830 43.007916 -25.8
-70.664776 43.007691 -26.2
-70.665212 43.007994 -25.2
-70.665002 43.007470 -25.3
-70.665327 43.007515 -26.2
-70.665347 43.007286 -24.5
-70.665768 43.007230 -25.9
-70.665866 43.006839 -25.3
-70.666116 43.006706 -24.8
-70.666520 43.006991 -25.6
-70.666498 43.006707 -24.6
-70.666422 43.006475 -23.9
-70.666825 43.006761 -24.3
-70.666766 43.006524 -23.6
-70.666692 43.006306 -23.0
-70.667016 43.006382 -23.1
-70.667030 43.006144 -21.4
-70.667447 43.006303 -21.6
-70.667782 43.006047 -18.5
-70.667524 43.005842 -17.8
-70.667848 43.005788 -16.3
-70.667861 43.005544 -15.6
-70.668160 43.005734 -15.6
-70.668166 43.005474 -16.1
-70.668424 43.005343 -17.1
-70.668895 43.004725 -18.0
-70.669201 43.004944 -17.9
-70.670005 43.004164 -21.7
-70.670374 43.004173 -23.4
-70.670925 43.003768 -21.8
-70.671254 43.003405 -23.8
-70.671106 43.002998 -27.6
-70.671461 43.003185 -27.2
-70.671576 43.002962 -28.0
-70.671891 43.003132 -27.0
-70.671888 43.002890 -28.1
-70.671609 43.002585 -29.0
-70.672369 43.002803 -27.6
-70.672067 43.002383 -29.3
-70.672348 43.002567 -28.6
-70.672460 43.002339 -29.0
-70.672731 43.002539 -28.0
-70.672767 43.002297 -28.9
-70.673086 43.002273 -28.3
-70.673032 43.002038 -28.9
-70.673222 43.001833 -28.9
-70.673522 43.001978 -28.4
-70.673389 43.001634 -28.8
-70.673189 43.001455 -28.6
-70.673682 43.001734 -28.6
-70.673468 43.001287 -28.6
-70.673957 43.001603 -28.5
-70.673780 43.001353 -28.5
-70.674041 43.001214 -28.4
-70.674277 43.001377 -28.2
-70.674068 43.000823 -28.4
-70.674319 43.001010 -28.3
-70.674660 43.001161 -27.9
-70.674401 43.000588 -28.0
-70.674656 43.000764 -28.1
-70.675139 43.000811 -27.8
-70.675474 43.000535 -28.0
-70.675434 43.000233 -28.4
-70.675776 43.000291 -28.2
-70.675629 42.999984 -28.3
-70.676030 43.000052 -28.2
-70.675731 42.999501 -28.3
-70.676323 42.999857 -28.1
-70.676342 42.999603 -28.6
-70.675976 42.999322 -28.5
-70.676659 42.999568 -28.3
-70.676930 42.999353 -28.2
-70.676747 42.999066 -28.1
-70.677173 42.999105 -27.9
-70.676982 42.998870 -27.8
-70.676826 42.998630 -27.5
-70.677241 42.998746 -27.3
-70.677588 42.998739 -26.4
-70.677462 42.998532 -26.2
-70.677451 42.998278 -25.7
-70.677766 42.998497 -25.4
-70.677795 42.998196 -24.7
-70.678032 42.998366 -24.5
-70.677581 42.998029 -24.8
-70.679719 42.999098 -23.7
-70.679779 42.999392 -24.6
-70.679386 42.999181 -24.6
-70.679454 42.999444 -25.5
-70.679606 42.999653 -25.5
-70.679108 42.999349 -25.8
-70.679110 42.999578 -26.4
-70.679308 42.999825 -26.3
-70.678797 42.999476 -26.5
-70.678902 42.999764 -27.1
-70.679078 42.999992 -27.2
-70.678491 42.999690 -27.6
-70.678770 42.999990 -27.5
-70.678159 42.999901 -27.9
-70.678393 43.000318 -27.9
-70.677943 43.000067 -28.0
-70.678059 43.000391 -28.2
-70.678118 43.000713 -27.9
-70.677651 43.000394 -28.2
-70.677684 43.000631 -28.4
-70.677362 43.000527 -28.3
-70.677417 43.000813 -28.4
-70.677634 43.001046 -28.5
-70.676865 43.000859 -28.1
-70.677114 43.001094 -28.4
-70.676871 43.001268 -28.1
-70.676984 43.001561 -27.9
-70.676408 43.001289 -27.9
-70.676585 43.001562 -28.0
-70.676044 43.001510 -27.6
-70.676284 43.001789 -27.6
-70.676268 43.002084 -27.4
-70.676011 43.001925 -27.6
-70.675638 43.001841 -27.6
-70.675781 43.002092 -27.5
-70.675927 43.002304 -27.3
-70.675306 43.002050 -27.2
-70.675654 43.002538 -27.0
-70.675358 43.002409 -27.1
-70.675025 43.002278 -27.1
-70.675258 43.002814 -26.4
-70.674923 43.002696 -26.7
-70.674584 43.002581 -26.5
-70.674725 43.002970 -26.1
-70.674369 43.002752 -25.9
-70.674716 43.003198 -25.7
-70.674414 43.003012 -26.0
-70.674397 43.003240 -25.6
-70.673946 43.003074 -25.8
-70.674136 43.003616 -24.8
-70.673677 43.003274 -25.1
-70.673408 43.003478 -24.7
-70.673731 43.003872 -24.3
-70.673525 43.004047 -24.1
-70.672835 43.003904 -23.9
-70.673187 43.004293 -24.0
-70.672387 43.004241 -23.4
-70.672137 43.004424 -23.4
-70.672508 43.004785 -23.4
-70.671734 43.004747 -22.8
-70.671491 43.004940 -21.9
-70.671164 43.005193 -20.7
-70.670959 43.005592 -19.7
-70.670596 43.005632 -19.0
-70.669410 43.006623 -16.7
-70.669563 43.006846 -16.9
-70.669116 43.006711 -18.4
-70.669263 43.006948 -18.7
-70.668931 43.007054 -20.7
-70.669004 43.007301 -21.3
-70.668697 43.007216 -22.3
-70.668723 43.007496 -22.7
-70.668333 43.007218 -23.3
-70.668408 43.007444 -23.7
-70.668508 43.007721 -23.8
-70.668093 43.007378 -24.4
-70.668106 43.007645 -25.0
-70.667780 43.007545 -25.4
-70.668028 43.008092 -25.4
-70.667459 43.007779 -25.7
-70.667627 43.008047 -26.1
-70.667790 43.008246 -25.8
-70.667229 43.007966 -26.1
-70.666894 43.008212 -25.8
-70.667232 43.008601 -25.9
-70.666684 43.008381 -25.9
-70.666670 43.008798 -25.9
-70.666388 43.008585 -25.8
-70.666238 43.008797 -25.9
-70.665475 43.009281 -25.7
-70.665513 43.009643 -25.7
-70.665169 43.009504 -25.8
-70.665257 43.009827 -26.0
-70.665432 43.010030 -25.6
-70.664955 43.009954 -26.1
-70.665056 43.010185 -25.7
-70.664576 43.009988 -25.4
-70.664330 43.010152 -25.1
-70.664542 43.010346 -24.8
-70.664416 43.010557 -22.5
-70.664178 43.010392 -24.9
-70.663653 43.010696 -21.7
-70.663351 43.010909 -21.7
-70.663589 43.011331 -23.1
-70.663212 43.011145 -21.7
-70.663112 43.011362 -22.6
-70.663293 43.011554 -22.1
-70.662817 43.011291 -23.5
-70.662954 43.011610 -23.2
-70.662415 43.011559 -24.5
-70.662553 43.012022 -24.6
-70.662147 43.011739 -24.9
-70.661931 43.011949 -25.6
-70.662159 43.012144 -24.2
-70.661788 43.012367 -24.9
-70.661444 43.012438 -22.8
-70.661633 43.012780 -24.5
-70.660991 43.012617 -21.5
-70.661166 43.012936 -22.4
-70.660790 43.012797 -20.7
-70.660618 43.013164 -20.7
-70.660704 43.013387 -20.5
-70.660404 43.013335 -20.6
-70.660027 43.013368 -20.9
-70.660052 43.013634 -20.2
-70.659747 43.013769 -20.7
-70.659851 43.014041 -22.9
-70.659429 43.013765 -21.2
-70.659579 43.014193 -22.6
-70.659174 43.013927 -21.7
-70.659130 43.014451 -18.3
-70.658700 43.014310 -23.6
-70.658834 43.014518 -18.1
-70.658486 43.014480 -18.5
-70.658621 43.014952 -23.2
-70.658308 43.014941 -23.8
-70.658053 43.015106 -24.2
-70.658115 43.015331 -23.5
-70.657708 43.015250 -24.2
-70.657622 43.015639 -24.0
-70.657299 43.015724 -24.4
-70.656681 43.015737 -24.1
-70.656937 43.016037 -23.3
-70.656261 43.016052 -22.3
-70.656501 43.016415 -22.0
-70.656101 43.016436 -22.3
-70.656206 43.016685 -21.7
-70.655780 43.016450 -22.8
-70.655807 43.016700 -20.2
-70.655602 43.016883 -21.2
-70.655513 43.017106 -21.0
-70.655202 43.017148 -20.9
-70.654970 43.017339 -19.0
-70.654614 43.017358 -19.6
-70.654608 43.017591 -20.1
-70.654281 43.017589 -19.9
-70.654059 43.018040 -20.5
-70.653762 43.017970 -21.1
-70.654091 43.018294 -21.6
-70.653551 43.018184 -21.8
-70.653293 43.018349 -23.1
-70.653331 43.018593 -23.7
-70.653447 43.018804 -24.1
-70.652999 43.018529 -23.8
-70.653023 43.018774 -24.5
-70.653207 43.019004 -24.8
-70.652655 43.018734 -24.4
-70.652834 43.018960 -25.0
-70.652337 43.018960 -25.1
-70.652079 43.019151 -25.6
-70.652258 43.019337 -25.8
-70.651695 43.019417 -26.0
-70.651836 43.019969 -26.1
-70.651377 43.019638 -26.1
-70.651340 43.019909 -26.4
-70.650969 43.019926 -26.4
-70.650524 43.020263 -25.9
-70.650914 43.020653 -26.5
-70.650054 43.020601 -24.7
-70.649258 43.021142 -26.5
-70.649445 43.021322 -25.8
-70.649136 43.021412 -25.7
-70.649040 43.021626 -24.7
-70.648716 43.021542 -26.3
-70.648713 43.021774 -25.7
-70.648533 43.021977 -26.1
-70.648716 43.022197 -25.6
-70.648197 43.021912 -27.2
-70.648189 43.022254 -26.4
-70.647885 43.022169 -26.6
-70.648331 43.022577 -27.4
-70.648015 43.022446 -27.5
-70.647622 43.022333 -27.3
-70.648091 43.022746 -28.0
-70.647786 43.022614 -28.1
-70.647355 43.022531 -27.8
-70.647603 43.022818 -28.7
-70.647574 43.023059 -29.1
-70.647034 43.022718 -28.4
-70.646708 43.023000 -26.5
-70.647149 43.023386 -27.9
-70.646901 43.023199 -25.9
-70.646896 43.024820 -33.1
-70.647246 43.025052 -32.7
-70.647165 43.024662 -32.5
-70.647490 43.024883 -32.1
-70.647433 43.024523 -31.9
-70.647884 43.024466 -31.4
-70.648211 43.024179 -30.6
-70.648652 43.024338 -30.3
-70.648405 43.023990 -30.1
-70.648801 43.024112 -29.6
-70.648523 43.023751 -29.4
-70.648855 43.023876 -27.9
-70.648751 43.023592 -27.3
-70.649167 43.023859 -24.9
-70.649083 43.023606 -24.2
-70.649402 43.023656 -23.0
-70.649156 43.023349 -24.8
-70.649470 43.023421 -22.4
-70.649381 43.023193 -24.2
-70.649809 43.023337 -22.9
-70.649541 43.022929 -24.9
-70.650015 43.023159 -23.7
-70.649856 43.022899 -24.0
-70.649828 43.022668 -22.1
-70.650154 43.022441 -23.5
-70.650449 43.022517 -25.5
-70.650667 43.022676 -24.4
-70.650442 43.022183 -26.2
-70.650817 43.022219 -26.2
-70.651126 43.022250 -25.6
-70.650806 43.021882 -26.4
-70.651114 43.022015 -26.3
-70.651044 43.021703 -26.6
-70.651377 43.021824 -25.9
-70.651675 43.021985 -25.8
-70.651691 43.021700 -25.3
-70.651436 43.021423 -25.6
-70.651772 43.021445 -24.4
-70.651987 43.021196 -22.8
-70.652300 43.021133 -22.1
-70.652316 43.020899 -23.3
-70.652664 43.020928 -23.3
-70.652711 43.020705 -25.4
-70.652982 43.020898 -25.5
-70.652907 43.020298 -25.3
-70.653216 43.020499 -26.1
-70.653575 43.020496 -26.1
-70.653163 43.020147 -25.1
-70.653476 43.020229 -25.1
-70.653833 43.020355 -25.7
-70.653637 43.019832 -25.7
-70.654083 43.020164 -25.5
-70.654060 43.019837 -25.5
-70.653863 43.019659 -25.4
-70.654339 43.019997 -25.0
-70.654222 43.019592 -25.2
-70.654596 43.019796 -24.6
-70.654533 43.019571 -24.9
-70.654366 43.019348 -24.9
-70.654848 43.019566 -24.2
-70.654594 43.019184 -24.6
-70.654906 43.019259 -24.3
-70.655139 43.019434 -23.8
-70.655152 43.019091 -24.0
-70.655374 43.019262 -23.6
-70.655016 43.018875 -23.9
-70.655619 43.019076 -23.3
-70.655466 43.018868 -23.6
-70.655407 43.018641 -23.2
-70.655881 43.018874 -23.0
-70.655657 43.018448 -22.5
-70.656111 43.018679 -22.8
-70.655879 43.018267 -21.7
-70.656098 43.018425 -22.4
-70.656439 43.018416 -21.9
-70.656189 43.018121 -20.9
-70.656617 43.018229 -21.8
-70.656783 43.017779 -20.5
-70.657116 43.017926 -21.8
-70.657082 43.017686 -21.6
-70.657464 43.017659 -21.2
-70.657364 43.017438 -22.4
-70.657713 43.017477 -21.3
-70.657422 43.017097 -23.1
-70.657820 43.017254 -22.1
-70.657767 43.017008 -22.8
-70.658150 43.017171 -21.2
-70.658079 43.016950 -22.2
-70.657988 43.016666 -22.9
-70.658309 43.016736 -21.2
-70.658642 43.016802 -20.5
-70.658604 43.016468 -22.6
-70.658906 43.016568 -20.7
-70.658952 43.016310 -22.1
-70.658966 43.016052 -22.7
-70.659362 43.016325 -23.8
-70.659142 43.015859 -23.3
-70.659410 43.016017 -23.3
-70.659765 43.016024 -23.3
-70.659548 43.015769 -22.9
-70.660008 43.015778 -22.5
-70.659831 43.015587 -22.9
-70.660290 43.015625 -21.8
-70.660090 43.015360 -22.7
-70.660527 43.015458 -21.3
-70.660336 43.015211 -22.0
-70.660649 43.015174 -21.5
-70.660655 43.014866 -21.8
-70.660986 43.014850 -21.3
-70.660840 43.014650 -21.5
-70.661349 43.014358 -16.8
-70.661663 43.014206 -20.7
-70.661891 43.014388 -16.7
-70.662022 43.014178 -21.8
-70.661793 43.013982 -23.6
-70.662431 43.013953 -24.7
-70.662228 43.013619 -22.6
-70.662947 43.013726 -25.6
-70.663234 43.013546 -25.5
-70.663400 43.013304 -25.7
-70.663741 43.013184 -25.3
-70.663665 43.012879 -25.2
-70.663944 43.013014 -25.0
-70.663529 43.012637 -24.7
-70.663881 43.012711 -24.5
-70.664166 43.012854 -24.3
-70.663949 43.012453 -23.7
-70.664376 43.012688 -23.7
-70.664287 43.012418 -23.4
-70.664599 43.012487 -22.2
-70.664213 43.012169 -22.4
-70.664466 43.012008 -21.4
-70.664762 43.012093 -20.5
-70.665128 43.012038 -19.9
-70.664935 43.011801 -20.1
-70.665610 43.011639 -19.5
-70.665848 43.011486 -21.9
-70.665705 43.011164 -21.8
-70.666286 43.011138 -25.2
-70.665992 43.010655 -25.5
-70.666518 43.010922 -25.4
-70.666522 43.010603 -25.9
-70.666926 43.010606 -25.5
-70.666949 43.010249 -25.6
-70.667166 43.010456 -25.5
-70.666884 43.010027 -26.1
-70.667090 43.009853 -26.2
-70.667705 43.010135 -25.8
-70.667950 43.009989 -25.8
-70.667736 43.009776 -26.8
-70.668246 43.009769 -26.0
-70.668529 43.009587 -25.3
-70.668377 43.009389 -25.9
-70.668743 43.009425 -24.7
-70.668595 43.009046 -25.0
-70.668910 43.009124 -23.9
-70.668807 43.008795 -23.9
-70.669110 43.008922 -23.2
-70.669126 43.008664 -22.8
-70.669432 43.008924 -21.5
-70.669511 43.008597 -21.0
-70.669846 43.008620 -18.8
-70.669699 43.008343 -19.8
-70.670203 43.008101 -17.7
-70.670781 43.007919 -19.1
-70.670916 43.007708 -17.5
-70.670890 43.007379 -15.1
-70.671192 43.007548 -15.1
-70.671881 43.007117 -20.8
-70.671889 43.006760 -20.0
-70.672513 43.006485 -19.8
-70.672950 43.006297 -20.4
-70.672835 43.006087 -20.4
-70.672806 43.005840 -20.6
-70.673182 43.006119 -20.6
-70.673153 43.005877 -21.0
-70.673500 43.005888 -21.7
-70.673375 43.005405 -22.6
-70.673788 43.005693 -22.3
-70.673789 43.005446 -23.2
-70.674114 43.005471 -23.3
-70.674243 43.005266 -24.0
-70.674127 43.004788 -24.4
-70.674658 43.005070 -24.4
-70.674606 43.004645 -24.6
-70.674956 43.004826 -24.7
-70.674938 43.004406 -24.8
-70.675498 43.004456 -24.9
-70.675220 43.004184 -25.0
-70.675669 43.004236 -25.3
-70.675348 43.003873 -25.0
-70.675680 43.003885 -25.4
-70.676000 43.003810 -25.9
-70.675957 43.003452 -26.0
-70.676422 43.003797 -26.1
-70.676629 43.003627 -26.5
-70.676408 43.003087 -26.5
-70.676625 43.003273 -27.0
-70.676920 43.003458 -26.9
-70.676838 43.003059 -27.3
-70.677271 43.003219 -27.8
-70.677512 43.003049 -28.1
-70.677853 43.002746 -28.6
-70.677658 43.002547 -29.0
-70.677628 43.002232 -28.9
-70.678064 43.002549 -28.9
-70.678092 43.002265 -29.0
-70.678361 43.002453 -28.4
-70.677940 43.001977 -29.1
-70.678386 43.002194 -28.5
-70.678330 43.001917 -29.0
-70.678705 43.002197 -27.6
-70.678628 43.001843 -28.0
-70.678914 43.002020 -25.5
-70.678693 43.001617 -27.7
-70.678944 43.001791 -26.4
-70.679008 43.001545 -26.1
-70.679495 43.001626 -28.2
-70.679522 43.001372 -29.1
-70.679838 43.001381 -27.8
-70.679819 43.001144 -28.9
-70.680167 43.001127 -27.1
-70.679976 43.000950 -28.0
-70.679824 43.000742 -28.4
-70.680353 43.000930 -27.7
-70.680304 43.000699 -27.6
-70.680213 43.000472 -27.3
-70.680668 43.000670 -27.0
-70.680625 43.000365 -26.6
-70.680922 43.000522 -26.4
-70.680645 43.000083 -25.6
-70.681188 43.000356 -25.9
-70.681021 43.000129 -25.6
-70.680911 42.999884 -24.4
-70.681410 43.000126 -25.0
-70.681266 42.999913 -24.4
-70.681220 42.999686 -23.7
-70.681647 42.999914 -24.2
-70.681431 42.999513 -22.8
-70.681663 42.999662 -23.4
-70.683221 43.000431 -24.1
-70.683632 43.000781 -24.3
-70.683277 43.000691 -24.4
-70.682980 43.000594 -24.5
-70.683170 43.001013 -24.4
-70.682758 43.000782 -25.0
-70.682915 43.001194 -24.9
-70.682693 43.001024 -25.2
-70.682780 43.001421 -24.6
-70.682256 43.001078 -24.5
-70.682461 43.001480 -25.0
-70.682091 43.001500 -24.9
-70.681834 43.001364 -24.9
-70.682170 43.001762 -24.7
-70.681836 43.001651 -25.4
-70.681872 43.001924 -24.8
-70.681481 43.001608 -26.3
-70.681583 43.001841 -25.8
-70.681616 43.002079 -25.4
-70.681304 43.002102 -25.6
-70.681486 43.002292 -24.5
-70.680984 43.001986 -26.0
-70.681031 43.002544 -23.8
-70.680715 43.002356 -24.9
-70.680383 43.002371 -24.8
-70.680624 43.002680 -22.9
-70.680251 43.002596 -24.5
-70.680216 43.002842 -23.4
-70.680392 43.003030 -22.6
-70.679904 43.002722 -24.4
-70.680071 43.003172 -23.6
-70.679810 43.003031 -24.7
-70.679497 43.003010 -25.9
-70.679889 43.003388 -24.7
-70.679563 43.003384 -25.4
-70.679121 43.003259 -27.3
-70.679344 43.003588 -26.5
-70.679011 43.003664 -27.4
-70.679225 43.003841 -27.3
-70.678886 43.003876 -27.7
-70.678431 43.004248 -27.5
-70.678112 43.004029 -27.3
-70.678545 43.004463 -27.2
-70.678111 43.004414 -27.4
-70.677921 43.004631 -27.0
-70.677666 43.004456 -27.1
-70.677558 43.004785 -26.5
-70.677597 43.005013 -26.4
-70.676975 43.004908 -25.7
-70.677256 43.005187 -25.9
-70.677209 43.005444 -25.9
-70.676612 43.005534 -25.7
-70.676361 43.005349 -25.5
-70.676296 43.006077 -25.4
-70.675998 43.006143 -24.9
-70.675596 43.005944 -24.8
-70.675681 43.006182 -24.6
-70.675671 43.006537 -23.5
-70.675169 43.006269 -23.5
-70.675343 43.006456 -23.6
-70.675403 43.006692 -23.3
-70.674975 43.006464 -22.9
-70.675049 43.006789 -22.6
-70.674698 43.006646 -22.2
-70.674616 43.007016 -21.9
-70.674110 43.007087 -21.1
-70.673964 43.007302 -21.9
-70.673649 43.007419 -22.0
-70.674003 43.007774 -22.4
-70.673342 43.007646 -22.3
-70.673698 43.008021 -22.7
-70.673167 43.007847 -22.3
-70.673278 43.008079 -21.4
-70.672893 43.008019 -19.7
-70.673173 43.008296 -19.3
-70.672844 43.008267 -16.7
-70.672478 43.008404 -15.3
-70.672695 43.008647 -15.3
-70.672384 43.008623 -17.9
-70.672389 43.008866 -19.6
-70.672045 43.009087 -22.3
-70.671766 43.009220 -23.1
-70.671890 43.009451 -23.6
-70.671565 43.009669 -24.6
-70.671227 43.009437 -23.9
-70.671263 43.009756 -24.3
-70.670850 43.009659 -23.9
-70.670919 43.009952 -23.8
-70.670849 43.010266 -23.6
-70.670500 43.009954 -20.2
-70.670344 43.010262 -19.7
-70.670412 43.010485 -22.8
-70.669768 43.010356 -22.8
-70.669896 43.010861 -24.4
-70.669653 43.011049 -24.8
-70.668727 43.011014 -24.5
-70.668822 43.011249 -24.9
-70.668903 43.011557 -25.0
-70.668598 43.011429 -25.0
-70.668357 43.011269 -25.0
-70.668029 43.011465 -24.9
-70.668196 43.011712 -25.6
-70.668188 43.012020 -25.5
-70.667850 43.012210 -25.2
-70.667495 43.012195 -24.3
-70.667134 43.012116 -20.7
-70.667088 43.012472 -18.5
-70.666798 43.012359 -19.0
-70.666671 43.012575 -18.7
-70.666857 43.012806 -18.8
-70.666438 43.012853 -19.1
-70.666624 43.013050 -19.0
-70.666241 43.013071 -19.9
-70.666285 43.013338 -20.1
-70.665941 43.013154 -21.0
-70.665852 43.013374 -21.9
-70.665868 43.013636 -23.3
-70.665482 43.013405 -22.6
-70.665561 43.013761 -23.7
-70.665229 43.013587 -23.1
-70.665197 43.014002 -22.4
-70.664892 43.013954 -23.2
-70.664927 43.014235 -20.9
-70.664668 43.014426 -19.3
-70.664516 43.014669 -20.9
-70.664167 43.014543 -18.2
-70.664265 43.014974 -21.2
-70.663995 43.014851 -21.9
-70.663877 43.015254 -21.1
-70.663345 43.015475 -22.3
-70.662998 43.015322 -22.5
-70.663038 43.015600 -22.1
-70.662755 43.015480 -22.9
-70.663003 43.015889 -21.0
-70.662215 43.015863 -21.0
-70.662157 43.016091 -20.4
-70.661860 43.016442 -20.9
-70.661822 43.016670 -20.3
-70.661526 43.016463 -21.7
-70.661519 43.016726 -21.3
-70.661237 43.016974 -20.0
-70.660814 43.016927 -20.3
-70.660634 43.017171 -19.8
-70.660765 43.017429 -18.2
-70.660291 43.017412 -19.8
-70.660090 43.017592 -20.1
-70.660187 43.017811 -19.5
-70.659780 43.017719 -20.9
-70.659926 43.017950 -20.5
-70.659571 43.017889 -21.1
-70.659652 43.018148 -20.7
-70.659340 43.018143 -21.2
-70.659319 43.018386 -20.5
-70.659025 43.018456 -20.9
-70.659195 43.018644 -20.2
-70.658489 43.018612 -20.8
-70.658824 43.018894 -20.2
-70.658255 43.018819 -20.3
-70.658126 43.019125 -19.6
-70.657864 43.019262 -20.8
-70.658042 43.019506 -21.5
-70.657243 43.019541 -21.4
-70.657429 43.019800 -21.8
-70.657053 43.019718 -22.5
-70.657341 43.020034 -22.3
-70.657003 43.019996 -22.4
-70.656764 43.020196 -21.6
-70.656318 43.020624 -20.7
-70.656058 43.020472 -21.2
-70.655811 43.020657 -21.4
-70.656025 43.020951 -22.6
-70.655668 43.020884 -22.8
-70.655478 43.021076 -23.7
-70.655258 43.020898 -23.6
-70.655034 43.021058 -24.3
-70.654969 43.021382 -23.4
-70.655051 43.021647 -23.8
-70.654641 43.021459 -23.5
-70.654846 43.021831 -24.6
-70.654329 43.021565 -24.4
-70.654454 43.021805 -24.6
-70.654081 43.022008 -24.9
-70.654187 43.022219 -24.3
-70.653754 43.021977 -23.8
-70.653645 43.022204 -25.0
-70.653650 43.022482 -25.2
-70.653212 43.022339 -25.6
-70.653053 43.022553 -26.4
-70.653238 43.022785 -26.0
-70.653220 43.023030 -24.7
-70.652691 43.022837 -26.7
-70.652907 43.023060 -26.4
-70.652611 43.023138 -27.1
-70.652353 43.022929 -27.0
-70.652763 43.023395 -26.9
-70.652380 43.023353 -26.8
-70.652033 43.023217 -23.8
-70.652374 43.023668 -27.1
-70.652010 43.023602 -27.2
-70.652078 43.023881 -26.8
-70.651542 43.023500 -25.3
-70.651454 43.023732 -25.8
-70.651658 43.024064 -27.4
-70.651061 43.023838 -26.5
-70.651306 43.024058 -27.6
-70.651417 43.024339 -27.9
-70.650906 43.024041 -27.6
-70.651067 43.024279 -28.1
-70.651072 43.024570 -28.7
-70.650558 43.024201 -28.3
-70.650775 43.024431 -28.8
-70.650347 43.024366 -28.9
-70.650762 43.024817 -29.2
-70.650377 43.024592 -29.6
-70.650278 43.024813 -30.0
-70.650447 43.025041 -29.5
-70.650102 43.025019 -30.1
-70.649789 43.024872 -30.6
-70.650159 43.025289 -29.6
-70.649827 43.025158 -30.5
-70.649581 43.025415 -30.2
-70.649510 43.025681 -29.0
-70.649156 43.025498 -31.1
-70.649057 43.025746 -29.4
-70.648558 43.025661 -30.9
-70.648922 43.026024 -27.3
-70.648582 43.025900 -29.2
-70.648675 43.026194 -28.7
-70.648309 43.026077 -29.3
-70.648193 43.028802 -32.1
-70.647822 43.028478 -33.7
-70.648192 43.028565 -32.8
-70.648089 43.028345 -33.7
-70.647967 43.028132 -33.8
-70.648583 43.028431 -32.2
-70.648475 43.028207 -33.1
-70.648893 43.028233 -32.6
-70.648704 43.028047 -33.2
-70.648489 43.027695 -33.4
-70.649073 43.027878 -32.7
-70.648849 43.027714 -32.9
-70.649469 43.027761 -32.2
-70.649231 43.027583 -32.5
-70.649346 43.027304 -32.3
-70.649676 43.027457 -32.1
-70.649856 43.027261 -31.8
-70.649732 43.027007 -32.1
-70.650142 43.027079 -31.4
-70.649987 43.026857 -31.6
-70.650410 43.026919 -31.3
-70.650276 43.026669 -31.4
-70.650681 43.026749 -30.4
-70.650873 43.026515 -30.3
-70.650781 43.026289 -30.4
-70.651177 43.026387 -29.6
-70.651365 43.026158 -29.5
-70.651689 43.026166 -28.6
-70.651281 43.025666 -27.7
-70.651561 43.025829 -28.9
-70.651900 43.025987 -28.4
-70.651874 43.025723 -28.2
-70.652173 43.025779 -27.7
-70.651660 43.025331 -28.7
-70.652063 43.025530 -28.2
-70.652094 43.025285 -28.1
-70.652385 43.025481 -27.1
-70.652381 43.025205 -27.3
-70.652167 43.024978 -27.8
-70.652713 43.025337 -26.6
-70.652421 43.024819 -27.4
-70.652687 43.024976 -26.8
-70.652952 43.025136 -26.1
-70.652708 43.024639 -27.2
-70.652985 43.024869 -26.5
-70.653308 43.024928 -25.7
-70.652937 43.024488 -26.6
-70.653271 43.024685 -26.0
-70.653617 43.024688 -24.9
-70.653186 43.024276 -26.6
-70.653451 43.024474 -25.9
-70.653757 43.024319 -25.6
-70.653544 43.024094 -26.1
-70.654199 43.023941 -26.2
-70.653916 43.023713 -26.8
-70.654510 43.023952 -25.3
-70.654427 43.023720 -26.6
-70.654773 43.023834 -24.6
-70.654746 43.023124 -26.2
-70.655130 43.023247 -26.0
-70.654971 43.022906 -26.6
-70.655580 43.023256 -27.4
-70.655474 43.022973 -25.8
-70.655547 43.022508 -26.4
-70.655783 43.022670 -26.4
-70.656074 43.022840 -27.1
-70.655945 43.022450 -25.7
-70.656379 43.022593 -26.5
-70.656346 43.022212 -24.4
-70.656662 43.022389 -26.0
-70.656322 43.021968 -23.9
-70.656630 43.021980 -23.4
-70.657042 43.022036 -26.0
-70.656722 43.021752 -22.1
-70.657354 43.021795 -26.2
-70.657027 43.021426 -20.4
-70.657409 43.021438 -23.4
-70.657749 43.021548 -26.1
-70.657682 43.021229 -25.3
-70.658047 43.021348 -25.4
-70.658317 43.021143 -24.9
-70.658005 43.020853 -24.9
-70.658536 43.020959 -24.6
-70.658144 43.020577 -24.1
-70.658378 43.020728 -24.2
-70.658708 43.020771 -24.0
-70.658559 43.020523 -23.8
-70.658937 43.020613 -23.6
-70.658615 43.020302 -23.1
-70.658942 43.020375 -22.8
-70.658815 43.020129 -21.0
-70.659215 43.020268 -21.8
-70.659102 43.019965 -20.4
-70.659599 43.020151 -22.1
-70.659321 43.019781 -20.0
-70.659679 43.019931 -20.4
-70.659566 43.019639 -20.0
-70.659973 43.019847 -21.2
-70.660299 43.019682 -22.6
-70.660496 43.019482 -22.3
-70.660565 43.019263 -21.9
-70.660934 43.019206 -21.1
-70.661657 43.018637 -20.7
-70.661381 43.018299 -19.7
-70.661780 43.018212 -19.9
-70.662181 43.018251 -20.1
-70.661973 43.018031 -18.7
-70.662429 43.018058 -20.0
-70.663001 43.017644 -18.8
-70.663447 43.017299 -17.4
-70.663668 43.017108 -17.5
-70.663664 43.016881 -18.8
-70.663985 43.016921 -17.2
-70.663851 43.016694 -18.8
-70.664197 43.016290 -19.2
-70.664519 43.016552 -18.5
-70.664601 43.016175 -20.1
-70.664693 43.015959 -21.1
-70.665019 43.016073 -20.6
-70.664891 43.015767 -22.9
-70.665235 43.015849 -21.8
-70.665564 43.015799 -20.6
-70.665387 43.015530 -22.0
-70.665756 43.015517 -21.6
-70.666201 43.015278 -22.9
-70.665984 43.014995 -21.2
-70.666202 43.014829 -22.2
-70.666517 43.014901 -24.2
-70.666419 43.014668 -23.0
-70.666936 43.014906 -23.8
-70.667221 43.014655 -23.3
-70.666808 43.014320 -23.1
-70.667346 43.014354 -22.9
-70.667115 43.014069 -22.4
-70.667651 43.014311 -22.8
-70.667491 43.014055 -21.3
-70.667502 43.013814 -21.4
-70.667852 43.013780 -19.9
-70.668098 43.013918 -21.8
-70.668125 43.013579 -19.6
-70.668634 43.013195 -20.6
-70.669053 43.012913 -22.7
-70.668898 43.012709 -23.1
-70.669496 43.012870 -22.4
-70.669335 43.012673 -23.1
-70.669740 43.012673 -22.5
-70.669767 43.012447 -23.1
-70.669979 43.012263 -23.6
-70.670269 43.012364 -23.1
-70.669924 43.011946 -25.1
-70.670269 43.012029 -24.8
-70.670567 43.012143 -24.4
-70.670638 43.011786 -25.1
-70.670625 43.011492 -24.9
-70.671059 43.011847 -24.8
-70.670960 43.011330 -24.1
-70.671408 43.011571 -23.6
-70.671687 43.011385 -22.8
-70.671532 43.011167 -22.7
-70.671405 43.010954 -22.1
-70.671863 43.011189 -22.3
-70.671726 43.010972 -22.0
-70.671666 43.010749 -22.6
-70.672098 43.011036 -21.2
-70.672159 43.010672 -23.9
-70.672503 43.010767 -23.1
-70.672822 43.010534 -23.9
-70.672816 43.010168 -23.7
-70.673129 43.010294 -22.9
-70.673015 43.009947 -22.8
-70.673402 43.010082 -21.3
-70.673341 43.009844 -20.6
-70.673666 43.009851 -18.5
-70.673528 43.009649 -18.4
-70.673845 43.009654 -15.9
-70.674103 43.009511 -17.1
-70.674421 43.009342 -22.1
-70.674079 43.008998 -21.6
-70.674406 43.008839 -23.0
-70.674822 43.009064 -23.0
-70.674634 43.008554 -23.0
-70.675117 43.008863 -23.1
-70.675335 43.008663 -23.8
-70.675274 43.008374 -24.4
-70.675723 43.008347 -23.8
-70.675660 43.008082 -22.9
-70.675956 43.008193 -22.5
-70.675612 43.007831 -22.1
-70.676019 43.007883 -23.1
-70.676297 43.007602 -23.7
-70.676638 43.007696 -23.8
-70.676339 43.007371 -23.6
-70.676854 43.007535 -24.1
-70.676644 43.007266 -23.8
-70.676953 43.007246 -23.9
-70.676698 43.007034 -23.9
-70.677326 43.007206 -24.2
-70.677016 43.006762 -24.5
-70.677281 43.006969 -24.4
-70.677652 43.006994 -24.5
-70.677454 43.006779 -24.9
-70.677888 43.006820 -25.3
-70.677649 43.006448 -25.5
-70.678044 43.006352 -25.8
-70.678268 43.006551 -25.6
-70.677908 43.006136 -26.1
-70.678561 43.006389 -26.0
-70.678409 43.006111 -26.8
-70.678753 43.006209 -26.4
-70.678508 43.005753 -26.9
-70.679132 43.006004 -26.8
-70.679356 43.005847 -26.9
-70.679072 43.005629 -26.9
-70.679685 43.005575 -26.8
-70.679455 43.005362 -26.8
-70.679608 43.005165 -26.6
-70.680016 43.005311 -25.6
-70.679564 43.004906 -26.4
-70.679889 43.005049 -26.6
-70.680312 43.005084 -24.9
-70.680148 43.004884 -26.2
-70.680481 43.004834 -25.6
-70.680186 43.004436 -26.0
-70.680594 43.004529 -25.2
-70.680468 43.004251 -24.6
-70.680950 43.004564 -23.9
-70.680819 43.004303 -24.1
-70.681149 43.004385 -22.4
-70.680774 43.004022 -23.3
-70.681069 43.004123 -21.3
-70.681068 43.003847 -20.9
-70.681381 43.003893 -20.5
-70.681403 43.003613 -20.9
-70.681814 43.003778 -19.6
-70.681661 43.003463 -19.7
-70.681984 43.003583 -18.8
-70.681996 43.003320 -18.5
-70.682400 43.003338 -18.8
-70.682112 43.003087 -20.1
-70.682733 43.002829 -22.7
-70.683101 43.002962 -22.9
-70.682792 43.002595 -24.2
-70.683129 43.002656 -22.9
-70.683438 43.002726 -23.1
-70.683184 43.002428 -24.3
-70.683637 43.002468 -23.9
-70.683540 43.002236 -24.0
-70.683927 43.002392 -22.7
-70.683688 43.002026 -23.8
-70.683940 43.002167 -23.2
-70.684270 43.002126 -22.4
-70.684164 43.001875 -22.9
-70.684488 43.001951 -21.8
-70.684139 43.001588 -23.3
-70.684497 43.001674 -22.7
-70.684782 43.001547 -22.5
-70.684732 43.001266 -22.9
-70.685035 43.001355 -22.4
-70.685170 43.001134 -22.6
-70.685111 43.000864 -22.9
-70.685499 43.001079 -22.8
-70.685459 43.000842 -23.1
-70.685801 43.001017 -22.6
-70.687622 43.001823 -24.5
-70.687195 43.001532 -22.7
-70.686953 43.001686 -24.2
-70.687320 43.001965 -24.7
-70.687109 43.002156 -24.4
-70.686626 43.001913 -24.4
-70.686708 43.002205 -23.9
-70.686415 43.002131 -24.1
-70.686161 43.002262 -23.5
-70.686563 43.002661 -21.9
-70.686249 43.002569 -23.5
-70.686354 43.002842 -23.3
-70.685806 43.002523 -23.7
-70.686010 43.002804 -23.9
-70.686044 43.003106 -23.4
-70.685478 43.002776 -24.3
-70.685730 43.003262 -22.1
-70.685252 43.002968 -24.4
-70.684842 43.003251 -22.5
-70.684443 43.003547 -22.4
-70.684519 43.003772 -23.2
-70.684565 43.003997 -23.6
-70.684136 43.003757 -23.0
-70.684216 43.004147 -23.6
-70.683862 43.004510 -17.2
-70.683532 43.004472 -17.6
-70.683528 43.004745 -20.6
-70.683235 43.004584 -18.2
-70.683299 43.004938 -21.3
-70.682888 43.004671 -19.0
-70.682982 43.004903 -22.1
-70.683015 43.005170 -23.0
-70.682596 43.004983 -23.2
-70.682796 43.005343 -24.1
-70.682291 43.005058 -23.8
-70.682461 43.005364 -24.9
-70.682011 43.005243 -24.9
-70.682269 43.005556 -25.4
-70.682237 43.005838 -25.5
-70.681730 43.005488 -25.5
-70.681958 43.005685 -25.6
-70.681730 43.005850 -25.9
-70.681362 43.005753 -25.7
-70.681736 43.006124 -26.2
-70.681194 43.005941 -26.0
-70.681374 43.006139 -26.3
-70.681418 43.006431 -26.1
-70.680822 43.006157 -26.1
-70.681032 43.006358 -26.4
-70.680908 43.006591 -26.1
-70.680618 43.006394 -26.4
-70.680963 43.006844 -25.8
-70.680322 43.006503 -26.0
-70.680572 43.006817 -26.0
-70.680557 43.007050 -25.8
-70.680189 43.007037 -25.9
-70.679774 43.006972 -25.7
-70.680004 43.007316 -25.6
-70.679882 43.007593 -25.4
-70.679257 43.007339 -25.4
-70.679333 43.007566 -25.3
-70.678948 43.007565 -24.9
-70.679354 43.007961 -25.2
-70.679112 43.007818 -25.1
-70.678874 43.007987 -25.0
-70.678569 43.007843 -24.6
-70.678902 43.008275 -25.1
-70.678564 43.008206 -24.9
-70.678241 43.008068 -24.4
-70.678528 43.008493 -24.9
-70.678098 43.008477 -24.6
-70.677762 43.008404 -24.1
-70.677903 43.008685 -24.1
-70.677524 43.008579 -23.7
-70.677940 43.008947 -24.0
-70.677578 43.008967 -23.4
-70.677588 43.009197 -23.1
-70.677145 43.008873 -22.8
-70.677162 43.009214 -22.9
-70.676842 43.009116 -23.1
-70.677205 43.009477 -22.4
-70.676906 43.009370 -23.0
-70.676588 43.009282 -23.2
-70.676601 43.009617 -22.0
-70.676259 43.009546 -21.9
-70.676464 43.009939 -20.0
-70.675949 43.009740 -21.4
-70.676259 43.010114 -19.0
-70.675891 43.009969 -19.8
-70.675946 43.010323 -17.7
-70.675470 43.010158 -17.8
-70.675711 43.010476 -17.2
-70.675218 43.010359 -16.6
-70.675468 43.010631 -17.8
-70.674956 43.010547 -18.0
-70.674609 43.010779 -18.1
-70.674685 43.010999 -18.0
-70.674712 43.011242 -19.0
-70.674335 43.011014 -19.4
-70.674398 43.011241 -20.3
-70.674093 43.011164 -21.0
-70.674411 43.011473 -21.0
-70.674172 43.011627 -22.1
-70.673772 43.011373 -21.7
-70.673781 43.011710 -22.9
-70.673542 43.011523 -22.4
-70.673763 43.011991 -23.3
-70.673246 43.011703 -22.9
-70.673351 43.011939 -23.5
-70.673421 43.012224 -23.7
-70.672928 43.011913 -23.4
-70.673071 43.012196 -23.8
-70.673217 43.012401 -23.9
-70.672640 43.012158 -23.7
-70.672890 43.012425 -24.2
-70.672863 43.012662 -24.5
-70.672369 43.012328 -24.0
-70.672541 43.012713 -24.6
-70.672168 43.012847 -24.3
-70.671851 43.012728 -24.1
-70.672246 43.013107 -24.3
-70.671891 43.012983 -23.8
-70.671919 43.013241 -23.4
-70.671456 43.013006 -23.1
-70.671586 43.013211 -22.9
-70.671220 43.013223 -22.2
-70.671322 43.013478 -22.6
-70.670967 43.013406 -21.1
-70.670961 43.013647 -22.6
-70.671187 43.013863 -22.9
-70.670940 43.014050 -22.1
-70.670622 43.013925 -21.5
-70.670303 43.013909 -20.2
-70.670421 43.014413 -21.5
-70.669976 43.014157 -20.9
-70.669961 43.014494 -22.1
-70.669679 43.014367 -21.6
-70.669989 43.014751 -22.4
-70.669427 43.014561 -22.1
-70.669661 43.014809 -22.8
-70.669188 43.014726 -22.7
-70.669382 43.014948 -23.3
-70.669347 43.015199 -23.8
-70.668854 43.014942 -23.3
-70.669036 43.015185 -24.0
-70.668609 43.015120 -24.2
-70.669043 43.015486 -24.4
-70.668804 43.015332 -24.4
-70.668747 43.015556 -24.8
-70.668307 43.015331 -24.6
-70.668396 43.015574 -24.8
-70.668079 43.015481 -24.7
-70.668414 43.015881 -23.9
-70.668054 43.015850 -23.5
-70.667716 43.015768 -23.4
-70.668045 43.016168 -20.8
-70.667796 43.016013 -21.9
-70.667470 43.015990 -21.8
-70.667611 43.016311 -19.6
-70.667533 43.016541 -19.3
-70.667153 43.016460 -19.5
-70.666789 43.016543 -18.9
-70.666991 43.016824 -17.9
-70.666673 43.017006 -17.6
-70.666454 43.016836 -18.1
-70.666526 43.017212 -18.1
-70.666051 43.017403 -18.2
-70.665561 43.017927 -19.1
-70.665320 43.017787 -19.1
-70.665193 43.018226 -19.0
-70.664804 43.017979 -19.0
-70.664922 43.018414 -17.8
-70.664707 43.018239 -19.5
-70.664393 43.018274 -19.8
-70.664429 43.018506 -18.2
-70.664463 43.018747 -18.3
-70.664057 43.018599 -18.8
-70.664030 43.018826 -18.1
-70.663767 43.019013 -17.9
-70.663439 43.018990 -18.6
-70.663484 43.019292 -17.7
-70.663200 43.019148 -19.4
-70.663022 43.019649 -19.6
-70.662708 43.019521 -19.2
-70.662406 43.019713 -19.9
-70.662426 43.020025 -19.4
-70.661693 43.020288 -18.3
-70.661481 43.020497 -19.5
-70.661409 43.020728 -18.8
-70.660792 43.020900 -21.4
-70.660175 43.021366 -23.2
-70.659988 43.021774 -22.8
-70.660118 43.022002 -22.1
-70.659549 43.021777 -23.6
-70.659203 43.022017 -24.8
-70.658930 43.022205 -24.8
-70.658691 43.022367 -25.2
-70.658354 43.022604 -25.4
-70.658711 43.022928 -24.2
-70.658395 43.022909 -25.4
-70.657964 43.022879 -25.3
-70.658154 43.023064 -25.4
-70.658352 43.023238 -24.5
-70.657665 43.023089 -25.4
-70.657706 43.023377 -25.5
-70.657880 43.023609 -24.5
-70.657342 43.023316 -24.9
-70.657596 43.023890 -25.8
-70.657014 43.023571 -25.1
-70.657248 43.023783 -25.6
-70.657008 43.023926 -26.1
-70.657210 43.024111 -26.1
-70.656770 43.023732 -25.8
-70.656810 43.024102 -26.5
-70.657020 43.024288 -26.4
-70.656458 43.024020 -26.4
-70.656537 43.024339 -26.7
-70.656205 43.024200 -26.4
-70.656545 43.024656 -25.8
-70.656150 43.024454 -27.0
-70.656219 43.024676 -26.9
-70.655809 43.024474 -27.0
-70.655916 43.024777 -27.2
-70.656142 43.025006 -26.7
-70.655812 43.024989 -27.5
-70.655460 43.025020 -25.6
-70.655489 43.025340 -27.0
-70.655104 43.025126 -22.6
-70.655163 43.025362 -26.2
-70.655304 43.025604 -26.8
-70.654797 43.025284 -24.3
-70.654826 43.025728 -24.9
-70.654575 43.025867 -23.1
-70.654240 43.025767 -23.2
-70.654260 43.026104 -24.3
-70.654423 43.026317 -24.1
-70.653745 43.026158 -22.5
-70.653875 43.026384 -25.0
-70.653436 43.026348 -24.4
-70.653515 43.026572 -23.5
-70.653428 43.026795 -22.8
-70.653125 43.026620 -24.4
-70.653092 43.026926 -23.9
-70.652743 43.026858 -24.9
-70.653013 43.027230 -24.4
-70.652686 43.027144 -25.4
-70.652370 43.027102 -25.9
-70.652587 43.027358 -25.5
-70.652278 43.027352 -26.2
-70.652316 43.027650 -25.8
-70.651988 43.027526 -26.5
-70.652236 43.027883 -25.3
-70.651932 43.027812 -26.3
-70.651540 43.027626 -27.2
-70.651896 43.028074 -26.0
-70.651604 43.027857 -27.1
-70.651584 43.028094 -27.0
-70.651314 43.027937 -27.6
-70.651604 43.028329 -26.4
-70.651292 43.028291 -27.3
-70.650908 43.028034 -28.1
-70.650894 43.028285 -28.2
-70.651103 43.028481 -27.7
-70.650586 43.028287 -28.6
-70.651033 43.028728 -27.4
-70.650736 43.028645 -28.3
-70.650807 43.028884 -27.4
-70.650293 43.028529 -28.8
-70.650397 43.028980 -28.4
-70.650106 43.028832 -29.2
-70.650361 43.029217 -27.8
-70.650063 43.029163 -28.7
-70.649632 43.028932 -29.2
-70.650032 43.029431 -28.2
-70.649717 43.029367 -28.9
-70.649313 43.029136 -29.2
-70.649639 43.029632 -28.6
-70.649338 43.029587 -29.1
-70.648986 43.029369 -29.3
-70.649250 43.030027 -29.2
-70.649040 43.029833 -29.5
-70.648713 43.029558 -29.4
-70.648808 43.030044 -29.9
-70.648953 43.030246 -29.7
-70.648364 43.029786 -29.7
-70.648596 43.030219 -30.3
-70.648202 43.029984 -30.4
-70.648349 43.030474 -30.7
-70.648110 43.030321 -30.9
-70.647898 43.030122 -30.4
-70.648329 43.030701 -30.6
-70.647950 43.030578 -30.9
-70.647528 43.030383 -31.0
-70.647957 43.030911 -30.5
-70.647566 43.030608 -31.0
-70.647059 43.030739 -30.6
-70.647233 43.031028 -30.4
-70.647499 43.031306 -30.2
-70.647023 43.031217 -30.1
-70.647291 43.031480 -29.8
-70.646967 43.031463 -29.8
-70.646513 43.031146 -29.6
-70.646612 43.031368 -29.6
-70.646854 43.031702 -28.7
-70.646310 43.031323 -29.2
-70.646559 43.031618 -28.8
-70.646435 43.031836 -27.9
-70.646012 43.031553 -28.8
-70.646410 43.032071 -27.0
-70.646053 43.031826 -28.3
-70.647227 43.033504 -27.6
-70.647055 43.033247 -23.9
-70.647356 43.033294 -26.1
-70.647053 43.032956 -24.5
-70.647218 43.032745 -25.5
-70.647585 43.032833 -27.6
-70.647887 43.033005 -27.6
-70.647498 43.032574 -28.0
-70.648237 43.032825 -30.0
-70.647671 43.032349 -30.4
-70.648462 43.032672 -31.9
-70.648125 43.032424 -31.0
-70.648134 43.032011 -31.1
-70.648531 43.032109 -31.7
-70.648794 43.031940 -31.7
-70.648933 43.031625 -31.3
-70.648860 43.031401 -30.9
-70.649452 43.031691 -31.8
-70.649736 43.031462 -31.6
-70.649834 43.031146 -30.6
-70.650281 43.031376 -30.8
-70.649979 43.030937 -30.2
-70.650453 43.031170 -30.1
-70.649914 43.030709 -29.7
-70.650397 43.030839 -29.8
-70.650464 43.030613 -29.1
-70.650714 43.030762 -29.4
-70.650723 43.030467 -28.5
-70.651014 43.030631 -28.4
-70.651039 43.030358 -27.7
-70.650844 43.030179 -27.8
-70.651355 43.030530 -27.4
-70.651191 43.030158 -27.2
-70.651515 43.030321 -26.8
-70.651343 43.029921 -26.8
-70.651797 43.030163 -26.0
-70.651660 43.029899 -26.0
-70.651442 43.029687 -26.2
-70.651794 43.029678 -25.5
-70.651725 43.029452 -25.2
-70.652137 43.029651 -24.9
-70.652041 43.029426 -23.3
-70.652615 43.029513 -25.7
-70.652360 43.029303 -26.0
-70.652608 43.029080 -26.6
-70.652620 43.028787 -26.0
-70.653076 43.028609 -24.7
-70.653539 43.028837 -23.9
-70.653294 43.028438 -23.9
-70.653803 43.028592 -21.4
-70.653797 43.028269 -22.6
-70.653858 43.027908 -24.2
-70.654133 43.028057 -21.7
-70.654393 43.028222 -27.3
-70.654546 43.027929 -25.8
-70.654471 43.027694 -22.1
-70.654884 43.027814 -26.9
-70.655129 43.027648 -26.2
-70.654726 43.027212 -22.7
-70.655257 43.027360 -26.3
-70.655561 43.027308 -26.3
-70.655133 43.026931 -24.4
-70.655507 43.027071 -26.1
-70.655889 43.027065 -25.8
-70.655569 43.026844 -22.7
-70.655861 43.026684 -26.4
-70.656159 43.026836 -26.0
-70.656148 43.026592 -26.0
-70.656481 43.026619 -25.6
-70.656190 43.026304 -25.6
-70.656494 43.026374 -25.6
-70.656811 43.026369 -25.2
-70.656733 43.026150 -25.6
-70.656994 43.025981 -25.3
-70.656793 43.025741 -25.4
-70.657320 43.025963 -25.2
-70.657150 43.025711 -25.5
-70.657004 43.025442 -25.4
-70.657606 43.025773 -25.0
-70.657766 43.025474 -24.4
-70.657741 43.025154 -24.6
-70.658143 43.025442 -24.7
-70.657938 43.024898 -25.8
-70.658425 43.024905 -26.3
-70.658705 43.025107 -26.8
-70.658327 43.024661 -25.7
-70.658627 43.024729 -26.0
-70.658976 43.024944 -26.5
-70.658597 43.024456 -25.3
-70.659204 43.024741 -26.1
-70.659207 43.024464 -25.6
-70.659028 43.024257 -25.4
-70.659109 43.024033 -24.7
-70.659563 43.024163 -24.7
-70.659371 43.023838 -24.6
-70.659718 43.023829 -24.3
-70.660075 43.023986 -24.0
-70.659777 43.023606 -24.2
-70.660088 43.023594 -23.7
-70.660368 43.023702 -22.5
-70.660088 43.023357 -23.4
-70.660382 43.023271 -22.8
-70.660664 43.023428 -22.1
-70.660602 43.023112 -21.4
-70.661159 43.023185 -24.5
-70.661153 43.022937 -22.1
-70.660879 43.022676 -21.1
-70.661464 43.022958 -24.2
-70.661206 43.022694 -20.4
-70.661422 43.022520 -21.0
-70.661941 43.022578 -23.9
-70.661770 43.022320 -23.0
-70.661739 43.022089 -22.4
-70.662074 43.022265 -22.9
-70.662162 43.022043 -22.1
-70.662589 43.022109 -21.0
-70.662330 43.021824 -19.6
-70.662717 43.021671 -19.8
-70.663002 43.021838 -22.8
-70.663164 43.021639 -21.0
-70.663060 43.021366 -20.6
-70.663301 43.021216 -20.5
-70.663790 43.021281 -21.6
-70.663765 43.021056 -21.2
-70.663783 43.020807 -22.4
-70.664362 43.020904 -23.3
-70.664126 43.020696 -22.3
-70.664478 43.020638 -22.2
-70.664327 43.020421 -19.5
-70.664634 43.020367 -20.4
-70.664890 43.020518 -21.9
-70.665135 43.020367 -20.8
-70.664947 43.020180 -18.6
-70.665009 43.019897 -18.1
-70.665412 43.020128 -19.3
-70.665352 43.019804 -18.4
-70.665663 43.019911 -17.4
-70.666039 43.019593 -16.6
-70.666112 43.019316 -16.1
-70.666345 43.018872 -17.7
-70.666649 43.018960 -15.9
-70.666715 43.018653 -17.0
-70.666693 43.018376 -17.9
-70.667231 43.018367 -16.6
-70.666974 43.018214 -17.0
-70.667069 43.017998 -16.7
-70.667547 43.018026 -16.1
-70.667405 43.017825 -16.4
-70.667786 43.017589 -17.6
-70.668446 43.017112 -20.1
-70.668838 43.016814 -21.4
-70.669003 43.016168 -24.2
-70.669366 43.016449 -24.5
-70.669361 43.015981 -24.9
-70.669755 43.016401 -24.9
-70.670030 43.016258 -24.7
-70.670373 43.016132 -24.8
-70.670678 43.016010 -24.6
-70.670614 43.015708 -24.2
-70.670963 43.015635 -23.6
-70.671151 43.015814 -23.7
-70.671241 43.015489 -23.3
-70.671549 43.015616 -23.2
-70.671494 43.015317 -23.2
-70.671901 43.015393 -23.0
-70.671792 43.015105 -22.9
-70.671667 43.014872 -22.4
-70.672210 43.015146 -22.9
-70.672207 43.014820 -22.8
-70.671972 43.014646 -22.2
-70.672498 43.014922 -22.7
-70.672524 43.014691 -22.6
-70.672417 43.014374 -23.0
-70.672834 43.014648 -23.0
-70.673061 43.014479 -23.0
-70.672881 43.014259 -23.6
-70.673105 43.014079 -23.4
-70.673445 43.014224 -23.6
-70.673456 43.013938 -24.1
-70.673272 43.013747 -24.1
-70.673757 43.013986 -23.9
-70.673781 43.013692 -24.1
-70.673657 43.013466 -24.9
-70.674093 43.013739 -24.2
-70.674141 43.013489 -24.6
-70.674144 43.013246 -24.7
-70.674461 43.013444 -24.3
-70.674711 43.013265 -24.4
-70.674450 43.013079 -24.9
-70.674953 43.013084 -24.3
-70.674828 43.012798 -24.3
-70.674705 43.012564 -23.6
-70.675299 43.012815 -23.8
-70.675087 43.012625 -23.8
-70.675033 43.012403 -23.2
-70.675339 43.012491 -23.2
-70.675697 43.012538 -22.8
-70.675341 43.012120 -21.1
-70.675871 43.012349 -22.0
-70.675693 43.011897 -19.3
-70.676165 43.012150 -20.6
-70.676016 43.011947 -21.1
-70.676002 43.011668 -19.8
-70.676288 43.011801 -20.6
-70.676618 43.011779 -19.0
-70.676438 43.011481 -19.1
-70.676751 43.011494 -18.1
-70.676670 43.011225 -17.3
-70.677049 43.011422 -17.3
-70.676991 43.011196 -17.5
-70.677009 43.010956 -17.9
-70.677243 43.010776 -18.1
-70.677696 43.010985 -18.7
-70.677609 43.010707 -19.0
-70.677676 43.010486 -19.4
-70.678197 43.010436 -20.4
-70.677952 43.010246 -20.4
-70.678556 43.010415 -21.3
-70.678279 43.010011 -21.1
-70.678543 43.010184 -21.3
-70.678927 43.010174 -21.8
-70.678843 43.009940 -22.2
-70.678758 43.009679 -22.2
-70.679263 43.009928 -22.2
-70.679588 43.009700 -22.5
-70.679556 43.009467 -23.2
-70.679367 43.009196 -23.7
-70.679899 43.009487 -22.6
-70.679748 43.009280 -23.5
-70.680202 43.009258 -22.6
-70.679799 43.008891 -24.1
-70.680188 43.008998 -23.6
-70.680516 43.009048 -23.0
-70.680180 43.008668 -24.4
-70.680513 43.008784 -23.9
-70.680832 43.008816 -23.3
-70.680474 43.008520 -24.4
-70.680809 43.008468 -24.1
-70.680575 43.008301 -24.5
-70.681257 43.008507 -24.0
-70.680898 43.008103 -24.6
-70.681562 43.008136 -24.6
-70.681199 43.007811 -24.8
-70.681909 43.008014 -24.3
-70.681819 43.007766 -24.8
-70.682114 43.007674 -24.7
-70.682084 43.007405 -25.0
-70.682581 43.007417 -24.9
-70.682608 43.007190 -25.1
-70.682449 43.006971 -25.0
-70.682951 43.007208 -24.5
-70.683099 43.006874 -24.9
-70.682974 43.006646 -25.0
-70.683420 43.006869 -24.8
-70.683391 43.006589 -25.0
-70.683730 43.006635 -24.5
-70.683535 43.006376 -24.8
-70.683477 43.006120 -24.8
-70.684036 43.006385 -24.3
-70.684071 43.006145 -24.3
