-70.819538 43.121079 -12.5
-70.827785 43.117075 -8.2
-70.827134 43.117636 -6.7
-70.826788 43.117827 -6.4
-70.826018 43.118089 -4.0
-70.828013 43.117463 -5.5
-70.827722 43.117622 -5.8
-70.827483 43.117433 -5.5
-70.826861 43.117255 -7.3
-70.816352 43.120971 -10.4
-70.816219 43.120835 -10.7
-70.816299 43.121120 -9.1
-70.816052 43.120390 -14.0
-70.815773 43.120221 -14.0
-70.815221 43.119834 -11.0
-70.814938 43.119704 -7.3
-70.814990 43.120004 -11.0
-70.814827 43.119834 -9.1
-70.814552 43.119500 -3.7
-70.791351 43.107167 -9.5
-70.791017 43.106964 -9.5
-70.789844 43.106486 -11.9
-70.789386 43.105664 -13.4
-70.788820 43.105511 -13.7
-70.786595 43.104733 -14.3
-70.786488 43.104379 -14.0
-70.786064 43.103175 -16.2
-70.785862 43.102964 -16.8
-70.762545 43.088532 -15.5
-70.762573 43.088669 -16.2
-70.762375 43.087994 -15.2
-70.761651 43.087044 -13.4
-70.761522 43.087187 -13.7
-70.760851 43.085960 -17.4
-70.760344 43.085549 -18.6
-70.760440 43.086301 -13.1
-70.759686 43.085237 -13.1
-70.758707 43.083936 -13.4
-70.758325 43.083119 -15.2
-70.758177 43.083269 -13.7
-70.757820 43.082842 -14.3
-70.757264 43.081893 -11.6
-70.756680 43.081866 -11.3
-70.756529 43.081688 -9.1
-70.756263 43.081449 -10.1
-70.761629 43.085267 -14.0
-70.761337 43.085085 -14.0
-70.760845 43.084547 -12.5
-70.760949 43.085390 -18.6
-70.760305 43.084276 -14.3
-70.760447 43.084673 -12.8
-70.760106 43.084116 -14.9
-70.759924 43.083213 -15.9
-70.759509 43.083291 -18.6
-70.759174 43.083429 -18.9
-70.758774 43.082238 -18.9
-70.758621 43.082797 -18.6
-70.758427 43.081501 -18.9
-70.758248 43.081654 -19.8
-70.780735 43.095543 -14.3
-70.780652 43.096096 -17.4
-70.780843 43.097111 -14.3
-70.780653 43.097266 -10.1
-70.780333 43.096683 -11.9
-70.780055 43.097783 -4.0
-70.779795 43.097451 -6.1
-70.779885 43.097609 -4.9
-70.779688 43.097295 -7.9
-70.780256 43.097378 -10.7
-70.779452 43.096989 -7.6
-70.779229 43.096802 -5.2
-70.778643 43.096509 -4.9
-70.778227 43.096392 -3.4
-70.777563 43.096004 -12.8
-70.777561 43.096262 -8.8
-70.777159 43.096245 -9.5
-70.776615 43.096098 -7.0
-70.779479 43.096653 -11.0
-70.779188 43.096315 -11.3
-70.779078 43.096649 -10.1
-70.778484 43.096207 -10.7
-70.794300 43.108910 -8.5
-70.794160 43.109204 -5.2
-70.793734 43.108513 -9.1
-70.793746 43.108850 -7.6
-70.793158 43.108200 -8.2
-70.792819 43.108049 -8.2
-70.792269 43.107649 -7.9
-70.792232 43.107785 -8.5
-70.791808 43.107545 -8.5
-70.756064 43.081288 -10.4
-70.767164 43.094332 -14.0
-70.766609 43.093427 -11.3
-70.766239 43.093389 -13.1
-70.765722 43.092859 -13.1
-70.765310 43.091907 -17.1
-70.764872 43.090970 -18.6
-70.764790 43.091415 -17.7
-70.764925 43.091589 -17.7
-70.764462 43.091024 -18.0
-70.764555 43.091600 -17.4
-70.764322 43.090825 -17.4
-70.764028 43.090968 -19.5
-70.763799 43.089886 -17.4
-70.743652 43.080842 -7.3
-70.743540 43.080616 -8.2
-70.743013 43.080751 -7.0
-70.738530 43.079320 -7.6
-70.762012 43.086878 -10.7
-70.762028 43.087041 -11.9
-70.761841 43.086638 -10.7
-70.761604 43.085739 -17.1
-70.761268 43.085945 -8.2
-70.761143 43.086155 -13.7
-70.767397 43.093454 -13.7
-70.767329 43.093872 -13.7
-70.766514 43.092193 -17.1
-70.765852 43.091956 -16.2
-70.764680 43.089800 -14.9
-70.764512 43.089563 -14.9
-70.764611 43.089999 -14.6
-70.764074 43.089559 -15.2
-70.763045 43.088751 -14.6
-70.762806 43.087657 -12.8
-70.762175 43.087265 -12.5
-70.762240 43.087401 -13.1
-70.761509 43.086413 -11.3
-70.760973 43.086355 -12.5
-70.760041 43.084749 -11.6
-70.760069 43.085218 -17.1
-70.759858 43.084298 -13.4
-70.762502 43.084870 -3.1
-70.760544 43.083106 -7.0
-70.760486 43.082970 -7.0
-70.759967 43.082112 -5.2
-70.760096 43.082380 -4.0
-70.759920 43.081824 -6.7
-70.759587 43.082144 -14.0
-70.764239 43.087496 -5.8
-70.764350 43.087736 -3.1
-70.764164 43.087356 -6.4
-70.763930 43.086958 -5.5
-70.763770 43.086654 -6.7
-70.763556 43.086288 -7.0
-70.763461 43.086103 -7.6
-70.763234 43.085879 -7.3
-70.763316 43.086458 -7.9
-70.763068 43.086113 -8.5
-70.762145 43.084943 -8.5
-70.762032 43.085212 -13.4
-70.761981 43.084635 -7.3
-70.761538 43.084237 -10.1
-70.761092 43.083922 -7.6
-70.760946 43.083765 -7.9
-70.760321 43.082788 -3.4
-70.760228 43.082627 -4.0
-70.759714 43.082306 -12.8
-70.759528 43.081475 -14.3
-70.758835 43.081477 -18.3
-70.763932 43.087170 -7.3
-70.763733 43.087370 -8.5
-70.763397 43.086721 -7.6
-70.762849 43.085826 -10.4
-70.762532 43.085291 -11.3
-70.762452 43.085431 -12.5
-70.761231 43.084100 -7.6
-70.760594 43.083393 -7.6
-70.760752 43.083540 -8.2
-70.760573 43.083723 -14.3
-70.760383 43.083586 -14.0
-70.759658 43.081965 -11.6
-70.759823 43.082543 -12.2
-70.759464 43.082528 -18.0
-70.759282 43.081972 -16.2
-70.758878 43.081979 -18.6
-70.764494 43.088712 -2.7
-70.764340 43.087947 -6.1
-70.764272 43.088198 -3.1
-70.764291 43.088651 -10.4
-70.764083 43.088512 -12.5
-70.703350 43.067904 -13.4
-70.703299 43.068217 -13.4
-70.703161 43.061835 -18.3
-70.703093 43.063371 -12.8
-70.702982 43.064691 -18.6
-70.703177 43.065887 -15.9
-70.703167 43.066976 -15.2
-70.703175 43.068600 -14.3
-70.703102 43.070621 -16.5
-70.703095 43.070757 -16.8
-70.703065 43.071156 -17.4
-70.703047 43.071312 -17.7
-70.702969 43.067235 -15.5
-70.702996 43.067513 -14.9
-70.702992 43.068379 -14.6
-70.702958 43.069536 -15.5
-70.702994 43.069843 -16.2
-70.702815 43.074756 -18.0
-70.702813 43.069164 -15.9
-70.702812 43.069686 -16.5
-70.702807 43.070896 -17.7
-70.702634 43.071694 -18.3
-70.702633 43.074522 -19.5
-70.702627 43.071306 -19.2
-70.702556 43.072236 -11.3
-70.702583 43.072401 -12.2
-70.702591 43.072680 -11.9
-70.702446 43.074387 -19.5
-70.702444 43.070121 -18.0
-70.702439 43.070765 -18.9
-70.702418 43.075457 -9.5
-70.702236 43.071432 -18.9
-70.702118 43.074646 -15.5
-70.702035 43.075303 -9.5
-70.703509 43.059997 -17.7
-70.703502 43.060192 -17.7
-70.703362 43.060530 -17.7
-70.703134 43.059542 -15.9
-70.703131 43.059802 -16.2
-70.703129 43.060114 -16.8
-70.703133 43.060344 -17.1
-70.703129 43.060745 -17.4
-70.703140 43.061163 -17.7
-70.703140 43.061308 -17.7
-70.703139 43.061577 -18.0
-70.703131 43.062218 -18.0
-70.703129 43.062606 -17.4
-70.703020 43.059937 -16.2
-70.702952 43.061978 -17.4
-70.702949 43.062386 -17.1
-70.702972 43.064073 -13.4
-70.702973 43.066406 -14.3
-70.702835 43.064272 -12.5
-70.702763 43.064519 -16.8
-70.702746 43.064850 -18.3
-70.702832 43.065188 -14.3
-70.702887 43.065345 -10.4
-70.702851 43.065551 -13.1
-70.702932 43.066576 -14.3
-70.702936 43.067900 -14.9
-70.702826 43.068075 -14.9
-70.702893 43.068210 -14.9
-70.702785 43.068831 -15.5
-70.738530 43.079456 -7.0
-70.738220 43.078875 -7.9
-70.738315 43.079647 -5.8
-70.738034 43.079438 -4.6
-70.738758 43.078763 -9.5
-70.738599 43.078901 -8.5
-70.738398 43.079086 -7.6
-70.749058 43.081056 -6.1
-70.748775 43.080916 -9.1
-70.747903 43.080510 -10.4
-70.746930 43.080454 -10.7
-70.745670 43.079730 -15.5
-70.742102 43.079029 -14.6
-70.813811 43.119022 -4.3
-70.813803 43.119182 -3.4
-70.813029 43.118760 -6.4
-70.812142 43.118210 -9.5
-70.811903 43.117727 -10.1
-70.811620 43.117546 -10.4
-70.811364 43.117718 -11.3
-70.811423 43.117830 -11.3
-70.811182 43.117527 -11.3
-70.810890 43.117234 -11.6
-70.810704 43.117369 -10.7
-70.810478 43.117208 -10.1
-70.810320 43.116950 -10.4
-70.810080 43.116796 -10.7
-70.809230 43.116031 -11.3
-70.809408 43.116512 -11.6
-70.809217 43.116196 -11.6
-70.808785 43.116102 -11.9
-70.808398 43.115706 -12.2
-70.808203 43.115916 -12.8
-70.807905 43.115255 -12.5
-70.807415 43.115197 -12.5
-70.807431 43.115398 -12.8
-70.807051 43.114712 -12.5
-70.806759 43.114847 -12.8
-70.806782 43.115061 -13.1
-70.806166 43.114138 -12.5
-70.806251 43.114317 -12.8
-70.806158 43.114452 -12.8
-70.805874 43.114293 -12.8
-70.805357 43.113777 -12.8
-70.805347 43.113920 -13.1
-70.804988 43.113642 -13.4
-70.804555 43.113653 -14.0
-70.804436 43.113464 -12.8
-70.803506 43.113006 -13.7
-70.803128 43.112700 -11.9
-70.802915 43.112557 -13.1
-70.802774 43.112174 -11.6
-70.802302 43.111940 -11.6
-70.802330 43.112288 -11.9
-70.801683 43.111866 -11.3
-70.800584 43.111068 -12.5
-70.799464 43.110264 -13.7
-70.798740 43.109588 -14.0
-70.798746 43.109862 -13.4
-70.798651 43.110025 -12.8
-70.798365 43.109587 -13.4
-70.798215 43.109728 -12.8
-70.763474 43.089624 -17.4
-70.763192 43.089238 -16.5
-70.762952 43.089577 -16.2
-70.763016 43.089980 -17.4
-70.762501 43.088319 -15.2
-70.762186 43.088711 -17.1
-70.761926 43.088554 -16.5
-70.761562 43.087746 -15.5
-70.760971 43.087062 -12.5
-70.760875 43.086923 -12.2
-70.760002 43.085883 -11.9
-70.759729 43.085400 -12.8
-70.759734 43.085703 -11.6
-70.759070 43.084730 -13.1
-70.758334 43.083457 -13.7
-70.758411 43.084129 -11.9
-70.758157 43.083795 -11.0
-70.757792 43.083256 -11.9
-70.757413 43.082903 -11.9
-70.757184 43.082283 -11.6
-70.756613 43.082079 -4.6
-70.766205 43.093182 -13.7
-70.765935 43.093027 -13.1
-70.765391 43.092232 -16.8
-70.765208 43.092089 -14.3
-70.764982 43.092254 -8.5
-70.764598 43.091203 -18.0
-70.763851 43.090713 -17.7
-70.763410 43.090024 -17.7
-70.762508 43.089309 -17.4
-70.762061 43.088335 -16.5
-70.761517 43.088330 -14.6
-70.761337 43.087526 -14.9
-70.761957 43.088155 -16.2
-70.761785 43.087881 -15.9
-70.761259 43.087358 -14.0
-70.760550 43.087198 -14.6
-70.760372 43.086048 -16.5
-70.760241 43.086462 -8.5
-70.760002 43.086061 -14.3
-70.785232 43.103103 -16.2
-70.784362 43.102989 -14.3
-70.784180 43.102448 -15.9
-70.783884 43.101611 -18.0
-70.783879 43.101893 -16.2
-70.783456 43.101996 -14.3
-70.782387 43.100702 -13.7
-70.782008 43.100608 -11.9
-70.781974 43.101371 -14.0
-70.792429 43.108070 -8.5
-70.792254 43.108249 -8.8
-70.791837 43.107682 -8.2
-70.791769 43.107878 -8.2
-70.791341 43.107401 -9.1
-70.791333 43.107610 -9.5
-70.790881 43.107249 -9.1
-70.790609 43.106798 -10.4
-70.790622 43.106989 -10.1
-70.790234 43.106763 -11.0
-70.790253 43.107073 -11.0
-70.789373 43.106121 -12.2
-70.789172 43.106259 -10.7
-70.789227 43.106414 -9.8
-70.788766 43.105987 -11.9
-70.788705 43.106124 -10.7
-70.788760 43.106320 -7.9
-70.788049 43.105730 -11.6
-70.788230 43.105870 -11.9
-70.787917 43.105400 -12.5
-70.787668 43.105182 -15.2
-70.787300 43.104906 -15.2
-70.787311 43.105179 -13.7
-70.787281 43.105333 -12.5
-70.786943 43.104980 -11.0
-70.786869 43.104503 -15.2
-70.786440 43.104205 -13.4
-70.763479 43.086865 -7.9
-70.763550 43.087029 -8.8
-70.763528 43.087178 -9.5
-70.762427 43.085577 -12.8
-70.762448 43.085806 -13.1
-70.762424 43.086372 -12.5
-70.762065 43.085436 -15.2
-70.761611 43.084658 -10.1
-70.761702 43.084886 -5.5
-70.760801 43.084394 -13.7
-70.760541 43.084118 -14.6
-70.760449 43.083245 -11.6
-70.759885 43.082711 -11.9
-70.758083 43.081981 -18.9
-70.757531 43.081501 -19.2
-70.760117 43.083774 -17.4
-70.760059 43.083973 -16.2
-70.759654 43.083909 -16.8
-70.759655 43.084135 -14.3
-70.759443 43.082921 -18.6
-70.759446 43.083123 -18.9
-70.759319 43.083764 -16.8
-70.758957 43.082942 -18.9
-70.758758 43.083098 -18.0
-70.758623 43.082609 -18.0
-70.758506 43.081911 -19.5
-70.758190 43.082228 -17.4
-70.757798 43.081194 -20.4
-70.757646 43.081389 -20.1
-70.761141 43.085242 -17.1
-70.761169 43.085593 -18.3
-70.760936 43.085061 -15.2
-70.760811 43.085808 -17.4
-70.760604 43.084908 -11.9
-70.760514 43.085079 -14.3
-70.760556 43.085412 -17.7
-70.760070 43.084433 -13.1
-70.759698 43.083754 -17.1
-70.759255 43.083944 -14.6
-70.758926 43.083613 -15.9
-70.758552 43.082409 -18.3
-70.758550 43.083274 -15.5
-70.758187 43.082511 -16.8
-70.757714 43.082001 -16.5
-70.757267 43.081328 -16.2
-70.757141 43.081473 -11.0
-70.756926 43.081170 -11.3
-70.759526 43.085568 -12.5
-70.759625 43.085899 -11.0
-70.759568 43.086115 -8.2
-70.759341 43.085375 -11.6
-70.759022 43.084995 -11.6
-70.759165 43.085177 -11.6
-70.759161 43.085566 -11.3
-70.758911 43.085366 -11.3
-70.758672 43.084734 -11.9
-70.758299 43.084793 -11.6
-70.758157 43.084381 -11.0
-70.758034 43.084093 -11.6
-70.757573 43.083686 -11.6
-70.757056 43.083045 -11.3
-70.756469 43.082628 -5.8
-70.759999 43.086622 -7.3
-70.759453 43.086529 -8.8
-70.759320 43.085757 -11.3
-70.759032 43.085911 -7.9
-70.758644 43.085516 -11.3
-70.758540 43.085321 -11.3
-70.758387 43.084937 -11.3
-70.758200 43.084658 -11.3
-70.757806 43.084521 -11.3
-70.757582 43.083839 -11.3
-70.757236 43.083460 -11.6
-70.757138 43.083638 -11.3
-70.756969 43.083220 -10.7
-70.756403 43.082863 -4.9
-70.742010 43.079165 -14.9
-70.741615 43.078899 -15.5
-70.743821 43.080175 -12.2
-70.742754 43.079912 -14.0
-70.742600 43.079735 -14.6
-70.741979 43.079326 -15.9
-70.741313 43.079377 -1.8
-70.743002 43.080129 -12.5
-70.742654 43.080099 -14.0
-70.741927 43.079992 -14.0
-70.746049 43.080188 -10.4
-70.745991 43.079914 -14.9
-70.745110 43.080103 -15.9
-70.744735 43.080101 -14.6
-70.744725 43.080237 -13.1
-70.744433 43.079957 -14.9
-70.743583 43.079913 -14.0
-70.743441 43.080157 -12.8
-70.741961 43.079804 -16.5
-70.741141 43.079807 -3.1
-70.746388 43.080493 -11.6
-70.745948 43.080636 -11.0
-70.743761 43.080312 -9.8
-70.743122 43.079925 -14.0
-70.743007 43.080288 -9.8
-70.742274 43.080181 -10.7
-70.741753 43.080205 -8.5
-70.741486 43.079974 -7.9
-70.741220 43.080147 -3.4
-70.749659 43.080402 -7.6
-70.748778 43.080020 -9.5
-70.748343 43.080177 -10.1
-70.747980 43.079977 -10.1
-70.746580 43.079519 -11.6
-70.745967 43.079524 -13.1
-70.746068 43.079770 -13.7
-70.745038 43.079476 -20.7
-70.744675 43.079221 -17.7
-70.744540 43.079618 -17.7
-70.744253 43.079142 -15.5
-70.744042 43.078894 -16.2
-70.742641 43.078686 -13.7
-70.742807 43.079016 -14.6
-70.740609 43.078830 -18.9
-70.740402 43.078682 -18.6
-70.747098 43.081165 -11.9
-70.746618 43.081836 -9.5
-70.746278 43.081618 -11.6
-70.746235 43.081933 -8.8
-70.746026 43.081775 -10.7
-70.745711 43.082024 -8.8
-70.745483 43.082426 -6.1
-70.745307 43.082196 -7.9
-70.702386 43.068803 -16.8
-70.702324 43.070319 -18.6
-70.702216 43.071267 -18.0
-70.702278 43.071784 -11.6
-70.702211 43.073010 -17.7
-70.702210 43.073547 -19.2
-70.702188 43.075123 -12.5
-70.702203 43.072450 -11.6
-70.702027 43.072741 -14.9
-70.702023 43.074215 -16.5
-70.701999 43.074889 -12.5
-70.702016 43.069778 -19.2
-70.701860 43.070851 -21.3
-70.701787 43.073009 -15.9
-70.701807 43.073146 -16.2
-70.701814 43.073287 -16.5
-70.701795 43.073543 -16.5
-70.701819 43.075035 -8.5
-70.702989 43.061010 -17.1
-70.759306 43.082379 -18.0
-70.759155 43.081829 -17.4
-70.763972 43.087995 -10.7
-70.763086 43.087322 -11.0
-70.702804 43.069385 -16.2
-70.702782 43.070479 -17.4
-70.702749 43.062584 -16.2
-70.702581 43.064657 -17.4
-70.702632 43.065788 -11.9
-70.702750 43.066217 -10.4
-70.702553 43.066810 -15.5
-70.702730 43.068616 -15.5
-70.702758 43.068965 -15.9
-70.702747 43.070313 -17.4
-70.702650 43.071051 -18.6
-70.702569 43.073547 -21.3
-70.702519 43.066434 -11.3
-70.702495 43.066948 -16.2
-70.702447 43.067234 -16.8
-70.702547 43.069522 -16.8
-70.702570 43.069909 -17.4
-70.702435 43.072035 -11.0
-70.702395 43.073908 -20.7
-70.702395 43.074245 -19.5
-70.702383 43.068552 -16.8
-70.786556 43.104882 -12.2
-70.785897 43.103917 -14.0
-70.785951 43.104377 -9.8
-70.785563 43.104105 -7.9
-70.784912 43.103698 -6.1
-70.784378 43.103428 -9.1
-70.784188 43.103290 -10.7
-70.783634 43.102621 -14.0
-70.783258 43.102620 -11.9
-70.783309 43.102776 -11.3
-70.783075 43.102474 -11.9
-70.782911 43.102081 -13.1
-70.782525 43.101931 -12.8
-70.782530 43.102081 -11.9
-70.782521 43.102216 -11.0
-70.781946 43.101813 -9.5
-70.781603 43.101274 -10.1
-70.781290 43.101128 -5.2
-70.793883 43.109028 -6.1
-70.793836 43.108683 -7.6
-70.793498 43.109019 -5.2
-70.792979 43.108763 -6.7
-70.792979 43.108898 -4.6
-70.792560 43.108723 -4.9
-70.792203 43.108538 -5.8
-70.791915 43.108055 -8.5
-70.791878 43.108359 -7.0
-70.791695 43.108224 -7.6
-70.791399 43.108089 -8.2
-70.791130 43.107819 -9.8
-70.790986 43.107110 -9.1
-70.790947 43.107401 -9.5
-70.790762 43.107657 -8.2
-70.790278 43.106550 -11.0
-70.790236 43.107285 -8.5
-70.790360 43.107520 -7.6
-70.789952 43.106305 -12.5
-70.789838 43.106629 -11.6
-70.789801 43.106862 -11.6
-70.789667 43.107010 -10.4
-70.789730 43.107166 -8.5
-70.789289 43.106591 -10.7
-70.789292 43.106737 -10.4
-70.760365 43.087048 -13.4
-70.766233 43.094067 -5.8
-70.765832 43.093874 -3.1
-70.764674 43.091950 -11.0
-70.764827 43.092608 -4.3
-70.764642 43.092405 -3.7
-70.797990 43.109321 -13.4
-70.797650 43.109176 -13.1
-70.797250 43.109157 -12.5
-70.796647 43.108785 -12.5
-70.796456 43.108650 -12.2
-70.796184 43.108484 -12.2
-70.795966 43.107807 -12.8
-70.795597 43.107975 -12.5
-70.795576 43.108115 -12.2
-70.794679 43.107587 -14.0
-70.794406 43.107179 -13.1
-70.792863 43.105876 -11.6
-70.792473 43.105896 -11.6
-70.792319 43.105574 -11.0
-70.792323 43.106105 -12.2
-70.791833 43.105275 -11.6
-70.791838 43.105559 -11.3
-70.791635 43.105138 -12.2
-70.791499 43.105415 -13.4
-70.791228 43.105215 -12.8
-70.790839 43.104911 -11.0
-70.790408 43.104727 -10.7
-70.788877 43.103529 -11.0
-70.788543 43.103667 -12.5
-70.788587 43.103802 -13.1
-70.788337 43.103277 -11.0
-70.788382 43.103411 -11.3
-70.756549 43.083026 -9.5
-70.759408 43.086315 -7.6
-70.759163 43.086102 -6.7
-70.757782 43.084732 -11.3
-70.757575 43.084384 -11.6
-70.757435 43.083987 -11.6
-70.756731 43.083463 -11.3
-70.759487 43.086991 -4.3
-70.759232 43.086780 -4.3
-70.759007 43.086240 -4.9
-70.758843 43.086387 -5.8
-70.738872 43.075914 -19.8
-70.738632 43.075676 -19.8
-70.738075 43.075407 -13.1
-70.737859 43.075656 -5.8
-70.744602 43.076696 -4.0
-70.744502 43.076944 -3.7
-70.744135 43.076454 -6.1
-70.744224 43.076611 -5.8
-70.743345 43.076285 -5.8
-70.743367 43.076459 -6.7
-70.742998 43.076321 -8.5
-70.758512 43.084268 -12.5
-70.758568 43.084445 -12.2
-70.758273 43.083931 -11.3
-70.758084 43.083636 -11.9
-70.757922 43.083444 -11.3
-70.757425 43.083067 -11.9
-70.757379 43.083318 -11.9
-70.756872 43.082670 -11.6
-70.756544 43.082378 -4.6
-70.766720 43.094291 -12.5
-70.766753 43.094426 -11.6
-70.765702 43.092707 -13.7
-70.765679 43.093285 -3.4
-70.765541 43.092423 -16.2
-70.765525 43.093073 -4.6
-70.765331 43.092568 -11.0
-70.765320 43.092833 -6.1
-70.765144 43.092433 -11.0
-70.764965 43.091760 -17.7
-70.764567 43.091764 -15.5
-70.764045 43.091188 -18.0
-70.763853 43.090577 -18.6
-70.763630 43.091225 -16.5
-70.763320 43.090628 -18.0
-70.763480 43.091051 -17.1
-70.763253 43.090165 -17.7
-70.763152 43.090300 -18.0
-70.762727 43.090119 -16.2
-70.762469 43.088882 -17.4
-70.762211 43.089049 -17.7
-70.761749 43.089060 -15.5
-70.761468 43.088523 -11.0
-70.760958 43.087974 -11.0
-70.760502 43.086908 -14.9
-70.759012 43.086642 -5.8
-70.758611 43.085996 -4.0
-70.758468 43.085820 -4.0
-70.758213 43.085459 -10.7
-70.757899 43.085110 -11.3
-70.757876 43.084899 -11.3
-70.757310 43.084230 -11.6
-70.757279 43.084546 -11.6
-70.756847 43.083778 -11.9
-70.756903 43.084081 -11.6
-70.756596 43.083216 -12.5
-70.756664 43.083616 -11.3
-70.756243 43.083341 -3.7
-70.756301 43.083477 -8.2
-70.757781 43.085449 -9.5
-70.757493 43.085057 -11.0
-70.757511 43.085291 -11.0
-70.757160 43.084709 -11.3
-70.757228 43.084896 -11.6
-70.756864 43.083919 -11.6
-70.763020 43.086625 -9.8
-70.762129 43.085976 -13.7
-70.761780 43.085574 -15.9
-70.761710 43.085061 -9.5
-70.761215 43.084602 -12.5
-70.761235 43.084939 -13.1
-70.760967 43.084243 -13.1
-70.760853 43.084757 -13.4
-70.760471 43.083981 -15.5
-70.760062 43.083077 -13.7
-70.759832 43.083582 -17.7
-70.759210 43.082232 -18.0
-70.764909 43.089313 -6.4
-70.764948 43.089560 -6.1
-70.764615 43.089044 -3.1
-70.764534 43.089418 -11.3
-70.764215 43.088367 -9.1
-70.763177 43.087471 -11.3
-70.763257 43.087610 -11.9
-70.762805 43.086892 -10.4
-70.762901 43.087116 -10.4
-70.762386 43.086807 -10.7
-70.748798 43.080329 -8.8
-70.748178 43.080991 -8.5
-70.747005 43.081778 -9.1
-70.746395 43.082069 -9.1
-70.746122 43.082263 -9.1
-70.745590 43.082562 -6.4
-70.748888 43.080729 -9.5
-70.748010 43.081206 -8.2
-70.747866 43.081401 -7.9
-70.747478 43.081578 -8.5
-70.746178 43.082492 -5.5
-70.745687 43.082988 -4.0
-70.745548 43.082790 -4.0
-70.748634 43.081299 -6.1
-70.748549 43.081103 -8.2
-70.748370 43.081482 -7.6
-70.747964 43.081566 -7.3
-70.747892 43.081714 -7.3
-70.747420 43.081758 -7.9
-70.747330 43.081928 -8.5
-70.747249 43.082187 -7.0
-70.746960 43.082046 -8.5
-70.746874 43.082351 -5.2
-70.746571 43.082526 -3.7
-70.746516 43.082321 -8.2
-70.746110 43.082676 -4.9
-70.722358 43.077085 -5.5
-70.722248 43.077225 -6.7
-70.721852 43.077321 -9.5
-70.720259 43.077455 -16.2
-70.720246 43.077609 -15.9
-70.719855 43.077344 -16.2
-70.719819 43.077210 -16.8
-70.719546 43.077655 -9.5
-70.719096 43.077615 -11.6
-70.718930 43.077473 -14.0
-70.718657 43.077699 -6.4
-70.718245 43.077749 -8.5
-70.717862 43.077608 -13.7
-70.717345 43.077467 -19.2
-70.717456 43.077611 -16.8
-70.717455 43.077989 -11.6
-70.717026 43.077610 -19.2
-70.716535 43.077749 -19.5
-70.716460 43.078141 -13.7
-70.715960 43.078012 -19.5
-70.715984 43.078153 -18.0
-70.715797 43.078309 -17.4
-70.715225 43.078287 -18.6
-70.715257 43.078422 -16.2
-70.715135 43.078149 -19.5
-70.714954 43.078007 -20.4
-70.714883 43.078468 -13.4
-70.714103 43.078421 -14.0
-70.702792 43.062876 -15.2
-70.702840 43.063118 -13.7
-70.702805 43.063856 -11.3
-70.702649 43.059850 -13.7
-70.702641 43.060064 -14.0
-70.702608 43.060881 -15.2
-70.702605 43.061040 -15.2
-70.702700 43.063286 -13.1
-70.702670 43.063501 -11.3
-70.702618 43.063717 -11.0
-70.702720 43.065028 -17.4
-70.702618 43.066055 -11.3
-70.702516 43.064043 -11.0
-70.702471 43.064342 -11.6
-70.702505 43.066571 -12.2
-70.702469 43.067095 -16.5
-70.702607 43.067470 -16.8
-70.702431 43.063861 -11.6
-70.702432 43.065580 -15.9
-70.702429 43.068110 -16.8
-70.702434 43.068401 -16.5
-70.785274 43.101216 -11.9
-70.788051 43.102977 -9.8
-70.788079 43.103131 -10.4
-70.787855 43.103271 -11.9
-70.787310 43.102517 -10.1
-70.787035 43.102351 -9.8
-70.786311 43.101898 -10.1
-70.786332 43.102048 -10.4
-70.786353 43.102184 -11.0
-70.785950 43.102053 -11.3
-70.785494 43.101508 -10.7
-70.785495 43.101645 -11.0
-70.785455 43.101356 -10.4
-70.788975 43.105779 -12.2
-70.788820 43.106548 -8.5
-70.788255 43.106237 -7.9
-70.788093 43.106067 -10.1
-70.787960 43.105571 -10.4
-70.787817 43.105882 -9.8
-70.787626 43.105746 -9.5
-70.787217 43.105478 -9.1
-70.786780 43.105255 -8.5
-70.786567 43.105110 -8.2
-70.786341 43.104576 -13.1
-70.786187 43.104763 -6.7
-70.785786 43.103715 -13.7
-70.785872 43.104546 -4.9
-70.785499 43.104319 -5.2
-70.785286 43.103460 -11.3
-70.785006 43.103852 -2.7
-70.784922 43.103239 -12.5
-70.784955 43.104030 -2.4
-70.784761 43.103103 -14.3
-70.784652 43.103873 -4.9
-70.784395 43.103598 -5.2
-70.784176 43.102770 -14.6
-70.783954 43.102962 -13.1
-70.783988 43.103481 -7.3
-70.783762 43.102822 -13.1
-70.783589 43.102427 -14.3
-70.783577 43.102969 -11.6
-70.783721 43.103338 -8.2
-70.783466 43.102272 -14.0
-70.783355 43.102134 -14.0
-70.783355 43.103105 -9.8
-70.783028 43.102294 -12.8
-70.782949 43.101883 -13.7
-70.782901 43.102908 -7.0
-70.782657 43.102426 -10.4
-70.782736 43.102679 -8.2
-70.782285 43.101091 -13.1
-70.782363 43.101279 -13.4
-70.782089 43.101953 -9.1
-70.782259 43.102484 -7.3
-70.781881 43.101061 -11.9
-70.781582 43.101873 -6.1
-70.781344 43.101593 -6.4
-70.781426 43.101729 -6.1
-70.781194 43.101390 -5.8
-70.784647 43.101267 -14.3
-70.784683 43.101403 -14.9
-70.783972 43.101458 -17.4
-70.783614 43.100168 -15.9
-70.783489 43.101073 -13.7
-70.782763 43.100701 -14.3
-70.781302 43.095880 -14.6
-70.780940 43.096241 -18.3
-70.780586 43.095929 -16.2
-70.780451 43.096277 -17.1
-70.780353 43.095744 -17.1
-70.779844 43.096006 -16.2
-70.778923 43.095736 -14.6
-70.777685 43.095656 -13.4
-70.776441 43.095570 -14.3
-70.775961 43.095113 -14.6
-70.775468 43.095014 -15.5
-70.775075 43.094936 -14.9
-70.756808 43.084341 -11.6
-70.756434 43.084135 -11.3
-70.756191 43.083628 -6.4
-70.756267 43.083885 -11.0
-70.757872 43.079226 -4.3
-70.757581 43.079078 -8.2
-70.756757 43.079076 -13.4
-70.756127 43.079008 -3.1
-70.763957 43.086283 -4.3
-70.764059 43.086445 -4.0
-70.763737 43.085935 -4.3
-70.763838 43.086092 -4.3
-70.763594 43.085729 -4.3
-70.763362 43.085442 -5.2
-70.762979 43.085192 -7.9
-70.706028 43.070799 -12.8
-70.710358 43.076778 -20.1
-70.710358 43.077054 -21.6
-70.710206 43.078665 -10.7
-70.710329 43.079466 -8.8
-70.710266 43.079739 -6.7
-70.710227 43.079875 -6.1
-70.710152 43.080100 -4.9
-70.709958 43.078530 -7.9
-70.709897 43.079336 -10.1
-70.709946 43.079603 -7.6
-70.710118 43.075544 -14.0
-70.710069 43.075679 -14.9
-70.709965 43.077694 -19.5
-70.710014 43.077966 -13.1
-70.709994 43.078102 -10.4
-70.764335 43.092096 -6.1
-70.764462 43.092240 -4.9
-70.764122 43.091688 -12.8
-70.764108 43.091845 -9.1
-70.763226 43.090487 -17.7
-70.762401 43.089504 -17.1
-70.762124 43.089268 -17.1
-70.761681 43.089208 -13.1
-70.761175 43.088182 -8.2
-70.760629 43.087355 -14.3
-70.760622 43.087650 -12.8
-70.760439 43.087514 -11.9
-70.760254 43.087376 -11.0
-70.764077 43.091366 -17.1
-70.764066 43.091516 -15.2
-70.763699 43.091374 -14.0
-70.763198 43.091222 -11.0
-70.762965 43.090842 -14.6
-70.762464 43.090439 -14.3
-70.761863 43.088905 -16.8
-70.761882 43.089719 -10.4
-70.761647 43.088738 -15.5
-70.761303 43.088693 -8.5
-70.761306 43.089102 -13.1
-70.761184 43.088957 -10.4
-70.761062 43.088543 -4.6
-70.760850 43.088360 -3.4
-70.760547 43.088034 -6.1
-70.760688 43.088192 -4.9
-70.760393 43.087897 -8.8
-70.760163 43.087223 -11.6
-70.760025 43.087538 -8.2
-70.759867 43.087390 -7.3
-70.763613 43.091534 -10.1
-70.763608 43.091669 -7.3
-70.763707 43.091937 -4.6
-70.763421 43.090858 -18.9
-70.763271 43.091388 -10.1
-70.763051 43.090995 -14.3
-70.762683 43.090589 -16.5
-70.762313 43.090050 -14.9
-70.762315 43.090186 -13.4
-70.760906 43.088821 -4.9
-70.763102 43.091616 -4.9
-70.762771 43.091311 -7.9
-70.713710 43.078423 -14.0
-70.713556 43.078147 -17.4
-70.713549 43.078284 -16.8
-70.712298 43.078691 -13.4
-70.712099 43.078828 -12.2
-70.742913 43.076459 -12.2
-70.742714 43.076051 -9.1
-70.742630 43.076187 -11.9
-70.742260 43.076191 -14.6
-70.741312 43.075796 -10.4
-70.740968 43.075936 -14.9
-70.739773 43.075673 -19.5
-70.739546 43.075358 -19.8
-70.739122 43.075281 -18.0
-70.738028 43.075241 -15.9
-70.737622 43.075242 -7.0
-70.738732 43.070151 -5.2
-70.738775 43.070390 -4.6
-70.738537 43.069347 -6.4
-70.738643 43.069614 -6.1
-70.738666 43.069869 -5.5
-70.738322 43.068972 -5.5
-70.738398 43.069194 -5.5
-70.738133 43.068404 -4.6
-70.738245 43.068737 -5.2
-70.738108 43.068565 -4.9
-70.737605 43.068074 -3.4
-70.737616 43.068406 -4.3
-70.738180 43.070766 -5.5
-70.738009 43.070232 -6.1
-70.738018 43.070525 -4.6
-70.738164 43.070921 -6.7
-70.737864 43.070023 -5.5
-70.737959 43.070378 -5.5
-70.737626 43.069167 -5.5
-70.737721 43.069432 -5.2
-70.737761 43.069612 -4.6
-70.737807 43.069845 -5.5
-70.737512 43.068758 -4.9
-70.737558 43.068991 -4.9
-70.737438 43.068548 -4.9
-70.718348 43.078374 -7.9
-70.718388 43.078604 -6.1
-70.717897 43.078691 -7.6
-70.717871 43.078502 -8.8
-70.717491 43.078640 -9.1
-70.717001 43.078771 -6.4
-70.716540 43.078754 -4.3
-70.716450 43.078914 -6.7
-70.716032 43.078771 -10.4
-70.716014 43.078908 -9.1
-70.715824 43.079065 -6.4
-70.715415 43.078898 -5.8
-70.763644 43.084564 -4.0
-70.763199 43.085049 -6.7
-70.762715 43.085038 -7.0
-70.762592 43.085156 -9.8
-70.763859 43.084749 -3.4
-70.763834 43.084972 -5.2
-70.763296 43.085250 -3.4
-70.710618 43.067368 -4.9
-70.710599 43.067625 -5.2
-70.710580 43.067894 -5.5
-70.710543 43.068247 -5.5
-70.710522 43.068472 -5.5
-70.710414 43.067173 -5.2
-70.710307 43.068639 -5.8
-70.710281 43.068775 -5.8
-70.710093 43.067706 -6.4
-70.710093 43.067033 -5.5
-70.710091 43.067392 -6.1
-70.710052 43.068445 -6.4
-70.709901 43.067171 -5.8
-70.709898 43.068591 -6.4
-70.709915 43.068734 -6.1
-70.709906 43.068878 -6.1
-70.702430 43.069242 -17.1
-70.702430 43.069767 -17.7
-70.702388 43.070456 -18.6
-70.702264 43.071646 -17.4
-70.702165 43.064916 -16.8
-70.702206 43.066800 -14.3
-70.702234 43.068959 -17.4
-70.702040 43.073729 -18.6
-70.702065 43.074069 -17.4
-70.702066 43.074469 -16.2
-70.702062 43.066935 -17.4
-70.702062 43.067079 -17.7
-70.702062 43.067224 -18.0
-70.702064 43.068408 -18.0
-70.702064 43.069105 -18.0
-70.702046 43.069432 -18.3
-70.702065 43.071935 -10.7
-70.701931 43.072593 -13.7
-70.701883 43.073924 -16.2
-70.701875 43.068549 -18.9
-70.701703 43.071646 -14.9
-70.701880 43.071782 -12.8
-70.701747 43.072210 -9.8
-70.701697 43.074612 -10.7
-70.701691 43.069599 -20.4
-70.701633 43.070641 -18.0
-70.701511 43.074875 -5.2
-70.702908 43.060574 -16.5
-70.702717 43.059607 -13.7
-70.702717 43.060300 -14.9
-70.702704 43.060436 -15.2
-70.702719 43.061408 -15.9
-70.702727 43.061655 -16.2
-70.702718 43.062185 -16.2
-70.702532 43.060589 -14.3
-70.702534 43.060727 -14.3
-70.702532 43.061227 -14.6
-70.702528 43.061924 -15.2
-70.702509 43.062410 -15.5
-70.702350 43.061423 -13.1
-70.702350 43.061781 -14.0
-70.702359 43.062788 -13.4
-70.702423 43.063016 -13.1
-70.702350 43.064192 -11.3
-70.702459 43.065282 -17.4
-70.702458 43.065419 -16.8
-70.702291 43.059664 -11.9
-70.702247 43.059894 -11.6
-70.711903 43.078694 -15.2
-70.711561 43.078962 -13.4
-70.711012 43.079027 -12.8
-70.710829 43.078825 -14.3
-70.710460 43.078827 -12.8
-70.719672 43.079839 -8.8
-70.719458 43.079444 -4.3
-70.719385 43.079595 -6.7
-70.719297 43.079817 -7.9
-70.719239 43.080261 -5.5
-70.719223 43.080473 -5.2
-70.719184 43.080677 -7.0
-70.775074 43.095092 -14.9
-70.775022 43.094468 -15.5
-70.774877 43.094766 -13.7
-70.774301 43.094191 -13.4
-70.774182 43.094818 -14.6
-70.773049 43.094266 -15.9
-70.771646 43.094145 -15.9
-70.771433 43.094007 -16.5
-70.770842 43.094255 -16.2
-70.770719 43.094120 -16.5
-70.770469 43.094313 -14.9
-70.770387 43.093718 -17.1
-70.770262 43.094091 -16.5
-70.769837 43.094030 -16.2
-70.769006 43.093821 -16.5
-70.768734 43.093124 -18.0
-70.768392 43.093437 -17.1
-70.768159 43.093682 -16.5
-70.767754 43.093062 -19.2
-70.767778 43.093715 -15.9
-70.780873 43.095389 -6.7
-70.780549 43.095246 -9.5
-70.780274 43.095428 -16.2
-70.780134 43.095157 -10.7
-70.779953 43.095021 -10.7
-70.779888 43.095792 -15.5
-70.779544 43.094936 -11.3
-70.779115 43.094835 -12.2
-70.779022 43.094978 -17.1
-70.778669 43.094778 -12.2
-70.778178 43.094708 -10.1
-70.777804 43.094986 -16.2
-70.777165 43.094602 -6.4
-70.776719 43.094558 -3.4
-70.776808 43.094709 -13.1
-70.776462 43.094411 -4.9
-70.776376 43.094573 -9.5
-70.776432 43.094707 -14.0
-70.776363 43.094846 -15.5
-70.775964 43.094308 -9.5
-70.776057 43.094707 -16.2
-70.775626 43.094164 -6.1
-70.775527 43.094303 -11.9
-70.775440 43.094438 -15.2
-70.775481 43.094757 -14.6
-70.775254 43.094120 -7.0
-70.775327 43.094615 -15.2
-70.774815 43.094303 -11.0
-70.774678 43.094150 -3.1
-70.774214 43.094045 -3.4
-70.773888 43.094021 -3.1
-70.773834 43.094173 -13.1
-70.773532 43.093970 -2.7
-70.773285 43.093958 -2.4
-70.773174 43.094587 -15.5
-70.773051 43.093889 -2.1
-70.772798 43.094473 -16.2
-70.772623 43.093848 -2.7
-70.772242 43.093798 -2.7
-70.772073 43.094048 -17.1
-70.771977 43.093735 -3.1
-70.772026 43.093899 -13.7
-70.771552 43.093624 -3.4
-70.771448 43.093764 -15.5
-70.771150 43.093455 -5.2
-70.770703 43.093540 -16.2
-70.770717 43.093968 -17.1
-70.762582 43.090772 -13.1
-70.762648 43.091152 -7.6
-70.762049 43.090416 -7.3
-70.761848 43.089411 -17.1
-70.761848 43.089556 -14.3
-70.761477 43.089495 -10.4
-70.761457 43.089680 -6.4
-70.760752 43.089022 -6.4
-70.762645 43.090999 -11.0
-70.762666 43.091485 -2.4
-70.762275 43.090594 -11.0
-70.762196 43.090768 -8.8
-70.762262 43.091100 -7.6
-70.761902 43.090190 -10.7
-70.761721 43.089874 -6.7
-70.761530 43.090190 -7.9
-70.760973 43.089539 -8.8
-70.762198 43.091260 -5.5
-70.762297 43.091400 -4.0
-70.761816 43.090558 -5.5
-70.761705 43.090711 -4.3
-70.761753 43.090858 -8.2
-70.761289 43.089862 -3.4
-70.761439 43.090432 -6.4
-70.761099 43.089349 -11.3
-70.761200 43.090049 -5.5
-70.760902 43.089180 -9.1
-70.760888 43.089683 -4.6
-70.760627 43.089395 -5.8
-70.760443 43.089174 -4.3
-70.722170 43.076942 -7.0
-70.722082 43.076781 -7.0
-70.721948 43.077086 -8.5
-70.721702 43.076913 -9.8
-70.721536 43.077087 -12.2
-70.721451 43.077226 -13.1
-70.720997 43.077108 -14.9
-70.709011 43.078210 -12.5
-70.709113 43.078348 -11.0
-70.708800 43.079155 -8.5
-70.767834 43.094214 -16.2
-70.767531 43.095459 -8.5
-70.767117 43.094008 -13.4
-70.768158 43.094452 -14.9
-70.767975 43.094587 -13.4
-70.767973 43.094895 -6.4
-70.767564 43.094376 -14.9
-70.768308 43.095106 -7.9
-70.767757 43.093868 -15.9
-70.767562 43.094810 -9.1
-70.768010 43.094749 -11.3
-70.767719 43.095041 -7.3
-70.767716 43.095222 -9.5
-70.766910 43.094758 -10.1
-70.766916 43.095076 -8.2
-70.766878 43.094587 -11.3
-70.767570 43.094627 -12.5
-70.767391 43.094516 -14.3
-70.766683 43.093691 -10.1
-70.766792 43.095248 -6.7
-70.766452 43.094591 -9.5
-70.766470 43.094778 -8.5
-70.766473 43.094953 -7.3
-70.766993 43.093520 -11.0
-70.766460 43.093926 -9.1
-70.766413 43.095104 -6.1
-70.766073 43.094702 -4.3
-70.766085 43.095299 -4.0
-70.766137 43.095439 -4.0
-70.766017 43.095124 -3.1
-70.768628 43.094337 -14.9
-70.768420 43.094830 -9.5
-70.766219 43.093555 -10.1
-70.766337 43.094404 -9.5
-70.773841 43.095450 -6.1
-70.773343 43.095357 -14.0
-70.709748 43.067528 -7.0
-70.709897 43.068081 -7.0
-70.709666 43.067944 -7.3
-70.709769 43.069109 -5.8
-70.710163 43.063546 -4.3
-70.710108 43.063864 -5.2
-70.701084 43.069412 -21.3
-70.701044 43.069969 -15.9
-70.701203 43.070113 -15.2
-70.701177 43.071985 -11.9
-70.701051 43.072727 -12.5
-70.701087 43.073878 -7.3
-70.701079 43.074029 -5.5
-70.701013 43.068161 -20.7
-70.709918 43.077063 -22.0
-70.709779 43.077557 -21.0
-70.709776 43.079177 -10.1
-70.709654 43.079780 -6.1
-70.709575 43.080024 -6.1
-70.709567 43.077965 -15.2
-70.709573 43.078102 -12.8
-70.709586 43.078505 -7.3
-70.709494 43.079417 -6.4
-70.709890 43.077316 -22.3
-70.709689 43.075144 -13.7
-70.709617 43.075604 -14.9
-70.709542 43.078840 -9.5
-70.709531 43.075468 -14.6
-70.709553 43.075742 -15.2
-70.709504 43.076551 -18.9
-70.709500 43.077750 -18.6
-70.709380 43.079101 -9.1
-70.709295 43.079239 -8.2
-70.709214 43.079573 -4.3
-70.709128 43.076414 -18.6
-70.709192 43.077889 -17.1
-70.709174 43.078839 -8.8
-70.709614 43.076877 -21.0
-70.709398 43.074440 -15.9
-70.709459 43.075294 -14.0
-70.709301 43.077167 -22.0
-70.709316 43.077405 -22.0
-70.709260 43.075088 -13.7
-70.709298 43.076059 -16.8
-70.709262 43.076733 -20.7
-70.709143 43.079423 -6.7
-70.708997 43.074415 -15.5
-70.709026 43.074576 -14.9
-70.709101 43.076598 -19.8
-70.709084 43.076869 -21.0
-70.709008 43.078066 -14.6
-70.710157 43.064414 -6.1
-70.710153 43.064806 -5.8
-70.710145 43.064995 -5.5
-70.710103 43.065200 -5.5
-70.710062 43.065343 -5.5
-70.709961 43.063693 -4.3
-70.710057 43.064655 -6.1
-70.709987 43.065513 -5.5
-70.709888 43.063998 -6.7
-70.708977 43.072214 -4.3
-70.708839 43.072349 -8.5
-70.708842 43.072487 -10.4
-70.708828 43.072621 -12.2
-70.709420 43.068143 -7.0
-70.709256 43.067177 -5.8
-70.709274 43.068008 -7.0
-70.709251 43.069346 -5.2
-70.709243 43.069499 -5.2
-70.709175 43.066836 -5.5
-70.709221 43.067034 -7.0
-70.709134 43.068679 -5.5
-70.709182 43.068817 -5.5
-70.709177 43.069040 -5.2
-70.709201 43.069194 -5.2
-70.709166 43.069848 -5.2
-70.719102 43.081068 -7.6
-70.719080 43.081300 -6.1
-70.719050 43.081483 -6.1
-70.719039 43.081624 -7.3
-70.719021 43.081892 -8.2
-70.718979 43.082127 -8.5
-70.718651 43.082937 -7.0
-70.744196 43.076808 -5.5
-70.743752 43.076828 -4.6
-70.743409 43.076767 -8.2
-70.742291 43.076469 -14.3
-70.742018 43.076616 -11.0
-70.741257 43.076599 -18.6
-70.741007 43.076444 -19.8
-70.740633 43.076443 -20.4
-70.739425 43.076239 -19.5
-70.739170 43.075708 -18.3
-70.702271 43.060054 -11.9
-70.702271 43.060434 -12.5
-70.702162 43.061070 -12.5
-70.702214 43.063531 -12.2
-70.702334 43.064477 -14.6
-70.702186 43.064627 -16.5
-70.702339 43.065131 -17.7
-70.702246 43.065793 -14.3
-70.702239 43.066196 -11.9
-70.702209 43.068265 -17.7
-70.702123 43.063250 -11.6
-70.702146 43.063722 -9.8
-70.702132 43.066035 -12.5
-70.702145 43.066656 -13.4
-70.702067 43.069602 -18.6
-70.702014 43.069951 -18.0
-70.701979 43.070993 -18.6
-70.701979 43.066412 -14.3
-70.701977 43.068093 -18.9
-70.701958 43.068760 -18.3
-70.701776 43.071509 -15.5
-70.701794 43.064740 -17.1
-70.701770 43.064882 -17.7
-70.701781 43.065023 -18.0
-70.701786 43.065823 -17.7
-70.701789 43.066232 -17.1
-70.701705 43.071200 -10.1
-70.701615 43.071350 -13.1
-70.701616 43.073772 -13.4
-70.701590 43.074174 -12.5
-70.701613 43.074376 -11.9
-70.701583 43.066425 -18.6
-70.701603 43.067982 -20.7
-70.701607 43.068190 -20.7
-70.701603 43.068359 -20.7
-70.701610 43.069074 -20.4
-70.701609 43.069403 -20.7
-70.701567 43.072021 -10.4
-70.701528 43.072614 -11.6
-70.701401 43.073367 -12.5
-70.701391 43.068546 -21.6
-70.701292 43.071617 -14.0
-70.701348 43.072405 -9.8
-70.701361 43.073099 -12.5
-70.701360 43.073503 -9.8
-70.701181 43.073672 -9.1
-70.701188 43.074310 -7.6
-70.701160 43.074511 -5.8
-70.702309 43.060201 -12.5
-70.702146 43.060579 -11.6
-70.702149 43.060823 -11.9
-70.702137 43.061240 -12.2
-70.702137 43.061621 -12.2
-70.702153 43.061942 -12.8
-70.702200 43.062652 -12.8
-70.701977 43.061432 -11.3
-70.700906 43.072301 -12.5
-70.700937 43.073317 -7.6
-70.700854 43.072128 -13.7
-70.769391 43.093874 -16.8
-70.768973 43.093311 -16.2
-70.768533 43.093708 -16.2
-70.768141 43.093079 -17.4
-70.767855 43.093304 -14.9
-70.781606 43.098650 -16.5
-70.781030 43.096021 -18.6
-70.781069 43.098356 -12.8
-70.781105 43.098780 -11.9
-70.780793 43.098491 -11.0
-70.780676 43.098311 -12.8
-70.780007 43.096523 -10.1
-70.782371 43.100400 -14.6
-70.782359 43.098382 -16.5
-70.781998 43.099919 -14.3
-70.781813 43.098971 -16.2
-70.781713 43.096425 -15.2
-70.781601 43.097658 -19.5
-70.781448 43.097894 -19.5
-70.781419 43.098030 -18.6
-70.781429 43.097126 -16.8
-70.781265 43.098167 -16.5
-70.780994 43.096518 -14.6
-70.824868 43.117037 -7.0
-70.823967 43.117610 -9.1
-70.823831 43.117395 -9.5
-70.823508 43.117565 -9.5
-70.823512 43.117770 -8.8
-70.823002 43.118050 -9.5
-70.822032 43.118569 -9.5
-70.821781 43.118765 -9.8
-70.820780 43.119100 -10.7
-70.820765 43.118900 -10.7
-70.820438 43.119413 -10.7
-70.820021 43.119400 -8.8
-70.819625 43.119499 -11.0
-70.819115 43.119804 -10.4
-70.819237 43.120033 -11.3
-70.773499 43.095592 -7.3
-70.773275 43.094760 -16.2
-70.772948 43.095359 -12.5
-70.772950 43.095512 -9.1
-70.772612 43.095221 -14.3
-70.772591 43.095460 -10.7
-70.720627 43.077221 -16.2
-70.720436 43.077067 -16.2
-70.720254 43.077210 -16.5
-70.719715 43.077516 -14.3
-70.719351 43.077371 -11.0
-70.719257 43.077077 -17.7
-70.719255 43.077215 -15.5
-70.718523 43.077488 -13.7
-70.718418 43.077351 -17.4
-70.717850 43.077749 -12.2
-70.717494 43.077827 -14.0
-70.716929 43.077750 -17.1
-70.716944 43.077916 -15.9
-70.716508 43.077993 -16.2
-70.716041 43.077577 -20.7
-70.715840 43.077870 -20.4
-70.715499 43.077554 -21.0
-70.715036 43.077734 -20.7
-70.714689 43.078160 -19.5
-70.714552 43.078314 -17.7
-70.714542 43.077995 -20.4
-70.713821 43.077954 -19.8
-70.713330 43.078429 -14.6
-70.712755 43.078161 -18.0
-70.712751 43.078325 -15.9
-70.712154 43.078557 -16.5
-70.711782 43.078429 -19.8
-70.711051 43.078563 -16.8
-70.709953 43.078842 -10.4
-70.709758 43.078702 -9.1
-70.709384 43.078649 -6.7
-70.728207 43.075952 -7.3
-70.728250 43.076169 -5.8
-70.727745 43.076086 -9.1
-70.727762 43.076255 -8.8
-70.727317 43.076131 -9.5
-70.727115 43.076326 -7.3
-70.726635 43.076072 -6.4
-70.726504 43.076231 -4.3
-70.738934 43.074743 -18.6
-70.738006 43.074527 -10.7
-70.737871 43.074668 -10.7
-70.722420 43.076607 -6.4
-70.769803 43.093090 -16.5
-70.769464 43.092929 -9.8
-70.772252 43.094607 -14.9
-70.772208 43.095167 -6.7
-70.771808 43.095122 -2.7
-70.771600 43.094813 -9.5
-70.771598 43.094952 -4.0
-70.770922 43.094900 -5.8
-70.770468 43.094764 -4.9
-70.770095 43.094680 -6.1
-70.769319 43.094726 -6.1
-70.768924 43.094641 -9.8
-70.768890 43.094819 -6.7
-70.768704 43.095067 -4.9
-70.768538 43.094548 -13.4
-70.768418 43.094683 -11.9
-70.768358 43.095293 -4.0
-70.768021 43.095496 -5.2
-70.767996 43.095356 -7.0
-70.767626 43.095593 -7.0
-70.767296 43.095085 -7.9
-70.767183 43.095255 -7.3
-70.766883 43.094917 -9.1
-70.767029 43.095520 -7.6
-70.766734 43.094065 -10.7
-70.765996 43.093723 -6.4
-70.766062 43.094548 -4.9
-70.710038 43.059991 -5.2
-70.710101 43.060354 -6.7
-70.710066 43.060622 -6.1
-70.709961 43.060850 -4.6
-70.709888 43.061026 -4.0
-70.709877 43.061211 -2.4
-70.709948 43.061443 -4.6
-70.709916 43.061811 -4.3
-70.709911 43.062316 -6.1
-70.709884 43.062495 -5.5
-70.709839 43.061626 -4.9
-70.709786 43.061993 -5.2
-70.709829 43.062658 -4.6
-70.709670 43.063170 -5.2
-70.709803 43.064154 -7.0
-70.709686 43.063553 -7.0
-70.709675 43.063830 -7.0
-70.709624 43.064388 -6.7
-70.709679 43.064537 -6.7
-70.709597 43.065882 -5.8
-70.709578 43.066064 -4.9
-70.709318 43.064931 -7.0
-70.708509 43.072195 -5.8
-70.708719 43.077616 -18.6
-70.709366 43.073041 -14.6
-70.709149 43.074919 -14.0
-70.709216 43.076228 -17.7
-70.709206 43.077031 -21.6
-70.709066 43.073882 -16.5
-70.709066 43.074730 -14.3
-70.709110 43.075452 -15.5
-70.709142 43.075686 -15.9
-70.709143 43.075832 -16.2
-70.708931 43.075312 -15.5
-70.708764 43.077031 -21.6
-70.708803 43.078737 -7.6
-70.708785 43.078921 -8.5
-70.708750 43.074881 -15.5
-70.708772 43.075708 -16.8
-70.708744 43.075863 -16.2
-70.708722 43.076360 -18.6
-70.708705 43.077789 -13.4
-70.708572 43.076627 -20.1
-70.708502 43.076765 -20.7
-70.708475 43.079304 -7.3
-70.708453 43.079463 -6.4
-70.708395 43.078700 -9.1
-70.708776 43.074175 -15.9
-70.708751 43.077258 -21.6
-70.708749 43.073488 -16.5
-70.708688 43.073772 -16.5
-70.708644 43.074646 -14.6
-70.708702 43.075056 -15.5
-70.708744 43.075548 -16.5
-70.708747 43.076065 -17.4
-70.708718 43.076202 -18.0
-70.708577 43.077412 -20.4
-70.708574 43.078085 -14.6
-70.708606 43.078221 -13.7
-70.708569 43.078524 -10.7
-70.708514 43.072969 -14.6
-70.708563 43.075287 -16.5
-70.708377 43.077137 -21.3
-70.708389 43.077273 -21.0
-70.708391 43.079159 -7.6
-70.708338 43.076335 -18.9
-70.708371 43.076471 -19.2
-70.708208 43.077411 -19.8
-70.708369 43.078878 -6.1
-70.708109 43.076200 -18.3
-70.708108 43.078352 -12.5
-70.708176 43.078490 -9.8
-70.708059 43.079412 -5.8
-70.707988 43.076628 -19.8
-70.708714 43.073138 -15.2
-70.708617 43.074470 -14.6
-70.701916 43.060331 -10.4
-70.701888 43.062244 -12.5
-70.701730 43.060765 -10.1
-70.701751 43.060960 -10.4
-70.701732 43.061596 -10.7
-70.701729 43.062414 -11.6
-70.701730 43.062633 -11.6
-70.701732 43.063166 -11.0
-70.701720 43.063786 -12.2
-70.701608 43.060473 -9.5
-70.701568 43.060628 -9.8
-70.701545 43.061395 -10.1
-70.701628 43.066756 -18.9
-70.701639 43.066964 -19.2
-70.701488 43.063337 -8.5
-70.701369 43.064669 -16.2
-70.701474 43.069250 -21.3
-70.701360 43.064044 -8.8
-70.701358 43.064399 -13.1
-70.701356 43.064534 -14.3
-70.701184 43.065229 -18.6
-70.701247 43.065683 -19.2
-70.701350 43.066029 -19.5
-70.701359 43.066567 -19.8
-70.701164 43.067190 -15.2
-70.701220 43.069629 -17.7
-70.700969 43.065368 -18.6
-70.700994 43.067506 -16.2
-70.701124 43.068692 -22.3
-70.701178 43.068950 -22.3
-70.701162 43.069110 -22.3
-70.701063 43.069807 -15.2
-70.701002 43.070489 -17.4
-70.700997 43.070758 -18.9
-70.700975 43.070999 -18.6
-70.701021 43.071136 -15.5
-70.701042 43.071293 -10.4
-70.700812 43.070197 -13.4
-70.700859 43.071460 -11.6
-70.700799 43.071631 -12.5
-70.700783 43.068310 -20.4
-70.700687 43.069361 -16.5
-70.700604 43.070055 -12.5
-70.700625 43.070737 -17.1
-70.700800 43.071825 -14.0
-70.700701 43.073460 -7.0
-70.700630 43.073806 -5.8
-70.700428 43.072211 -13.7
-70.700402 43.072348 -13.1
-70.701495 43.062273 -10.7
-70.701288 43.063157 -9.5
-70.701126 43.061406 -8.5
-70.701124 43.063580 -10.1
-70.701109 43.063802 -9.5
-70.701136 43.067791 -20.4
-70.701178 43.067928 -21.3
-70.701028 43.062651 -5.5
-70.700951 43.064964 -18.3
-70.700989 43.065503 -19.2
-70.700958 43.066141 -19.5
-70.700939 43.066710 -19.5
-70.700941 43.066847 -15.9
-70.700942 43.067655 -17.7
-70.700800 43.067148 -11.6
-70.700775 43.068467 -22.3
-70.700760 43.070353 -13.1
-70.700782 43.071960 -14.3
-70.700719 43.064828 -17.4
-70.700731 43.065705 -19.5
-70.700718 43.066990 -9.1
-70.700571 43.067659 -14.9
-70.700631 43.069896 -12.2
-70.700577 43.071155 -14.9
-70.700568 43.072503 -12.2
-70.700575 43.072641 -11.9
-70.700609 43.072857 -9.8
-70.701964 43.061756 -11.9
-70.701918 43.062824 -11.0
-70.701841 43.062959 -10.4
-70.701855 43.063583 -11.6
-70.701828 43.063938 -9.1
-70.701805 43.064113 -9.5
-70.701807 43.064587 -16.2
-70.701956 43.065384 -18.0
-70.701961 43.065520 -17.7
-70.701960 43.065657 -17.4
-70.701816 43.068923 -19.2
-70.701714 43.064255 -9.1
-70.701773 43.064449 -11.9
-70.701765 43.066001 -16.5
-70.701772 43.066606 -17.4
-70.701560 43.065259 -18.6
-70.701590 43.065535 -18.9
-70.701585 43.067147 -19.5
-70.701416 43.067547 -20.1
-70.701578 43.067828 -20.4
-70.766057 43.094968 -4.0
-70.765914 43.094282 -3.1
-70.765726 43.093571 -3.7
-70.798388 43.108094 -10.4
-70.798522 43.108318 -11.0
-70.798195 43.107867 -10.1
-70.798028 43.107711 -10.1
-70.796810 43.107240 -9.5
-70.796019 43.106412 -9.5
-70.795946 43.106791 -10.7
-70.794671 43.105622 -9.8
-70.794827 43.106012 -10.4
-70.794114 43.105491 -9.5
-70.794040 43.105155 -8.5
-70.793059 43.104601 -7.6
-70.792818 43.104811 -8.2
-70.792384 43.104122 -9.5
-70.791780 43.103984 -8.8
-70.791878 43.104219 -8.8
-70.791517 43.103829 -9.5
-70.791347 43.103677 -10.1
-70.790864 43.103546 -10.1
-70.788997 43.102317 -7.0
-70.787994 43.101717 -6.7
-70.786926 43.100994 -7.3
-70.786346 43.100805 -8.2
-70.785908 43.100157 -7.6
-70.785403 43.100082 -8.2
-70.784902 43.100291 -8.8
-70.784492 43.100206 -12.2
-70.783911 43.098826 -5.2
-70.783805 43.099641 -11.6
-70.783775 43.099483 -12.2
-70.783327 43.098873 -7.0
-70.783402 43.099010 -10.4
-70.783060 43.098530 -4.6
-70.783046 43.098735 -6.7
-70.799723 43.108494 -7.0
-70.799736 43.108752 -5.8
-70.799149 43.108065 -7.9
-70.799278 43.108249 -6.4
-70.798914 43.108288 -10.1
-70.798653 43.107832 -9.8
-70.798766 43.107977 -10.7
-70.798514 43.107667 -7.9
-70.797866 43.107258 -7.9
-70.797852 43.107564 -9.1
-70.797464 43.107159 -9.1
-70.797442 43.107295 -9.5
-70.797476 43.107431 -10.1
-70.797088 43.107023 -9.1
-70.796451 43.106399 -7.9
-70.796557 43.106623 -8.8
-70.796348 43.106787 -9.5
-70.796186 43.106641 -9.8
-70.795796 43.106213 -10.4
-70.795314 43.105852 -10.4
-70.794945 43.105774 -10.1
-70.818871 43.120225 -11.6
-70.824516 43.117184 -5.5
-70.824379 43.117045 -2.1
-70.824275 43.117319 -8.8
-70.822851 43.117836 -8.5
-70.821935 43.118358 -9.8
-70.821549 43.118384 -9.1
-70.821197 43.118596 -7.0
-70.821250 43.118796 -9.8
-70.820805 43.118745 -7.9
-70.820107 43.119121 -7.0
-70.818633 43.119866 -7.9
-70.816178 43.120601 -14.3
-70.815716 43.120614 -14.0
-70.815812 43.120752 -12.5
-70.815677 43.120380 -13.4
-70.814570 43.119661 -6.1
-70.814142 43.119684 -4.3
-70.708426 43.073999 -15.9
-70.708370 43.076981 -21.6
-70.708286 43.073344 -16.5
-70.708258 43.073715 -16.2
-70.708378 43.074266 -14.9
-70.708274 43.074958 -16.2
-70.708259 43.075700 -17.1
-70.708233 43.076039 -17.7
-70.708251 43.077651 -17.7
-70.708057 43.074000 -15.9
-70.708184 43.074465 -15.2
-70.708178 43.074600 -15.2
-70.708118 43.075101 -16.5
-70.708015 43.079208 -7.0
-70.707940 43.076459 -19.2
-70.707916 43.076842 -21.0
-70.708004 43.077208 -20.7
-70.707813 43.077515 -18.6
-70.707856 43.077650 -16.2
-70.707981 43.077802 -11.0
-70.707975 43.078858 -8.5
-70.707841 43.078997 -7.9
-70.707811 43.075274 -16.8
-70.707741 43.076169 -18.0
-70.707706 43.076305 -18.6
-70.707765 43.077377 -19.5
-70.707655 43.078721 -9.8
-70.707634 43.079381 -4.9
-70.707584 43.077138 -20.7
-70.708238 43.075854 -17.4
-70.708108 43.074772 -15.5
-70.708060 43.075444 -17.1
-70.721988 43.076472 -11.0
-70.721990 43.076610 -10.4
-70.721606 43.076607 -12.2
-70.721621 43.076746 -11.9
-70.721251 43.076742 -14.0
-70.721254 43.076932 -13.7
-70.720852 43.076875 -15.5
-70.720699 43.076738 -16.5
-70.720451 43.076878 -16.2
-70.719958 43.076996 -17.1
-70.719401 43.076910 -17.7
-70.718987 43.076771 -16.8
-70.718856 43.077144 -17.4
-70.718846 43.077283 -16.5
-70.718640 43.076939 -17.4
-70.718318 43.077209 -17.7
-70.717832 43.077398 -18.0
-70.717561 43.076993 -19.2
-70.716983 43.077189 -20.4
