-118.506752 33.428624 0.3
-118.504899 33.431405 -0.3
-118.504207 33.431602 0.9
-118.50648 33.429913 0.6
-118.505299 33.431488 -3.7
-118.504266 33.431938 -2.7
-118.503227 33.432166 0.6
-118.503677 33.432405 -1.2
-118.505674 33.432774 -5.5
-118.50791 33.429258 -11.0
-118.509394 33.430252 -8.5
-118.506613 33.431119 -6.1
-118.504499 33.432158 -4.0
-118.503807 33.432571 -1.5
-118.508032 33.429577 -11.3
-118.505455 33.431324 -0.3
-118.506716 33.431863 -7.0
-118.50366 33.432566 -1.5
-118.504016 33.433274 -1.2
-118.504391 33.434019 -1.5
-118.502941 33.434046 1.2
-118.50316 33.434846 -2.4
-118.507994 33.428933 -11.0
-118.507516 33.430166 -9.1
-118.504863 33.431241 -0.3
-118.506544 33.431777 -7.6
-118.504702 33.43213 -3.7
-118.505999 33.432258 -5.8
-118.50463 33.433088 -2.4
-118.506313 33.429108 0.3
-118.507969 33.429805 -10.4
-118.509599 33.429985 -5.8
-118.505546 33.431349 0.0
-118.504927 33.432927 -4.6
-118.50698 33.429813 -2.1
-118.50823 33.431096 -7.9
-118.505638 33.431735 -7.0
-118.503777 33.43283 -1.2
-118.502882 33.43493 -1.5
-118.507535 33.429966 -9.4
-118.508491 33.429999 -11.0
-118.506502 33.431402 -7.6
-118.50528 33.433163 -3.4
-118.503202 33.433427 0.9
-118.506394 33.42903 -0.3
-118.507644 33.430696 -9.4
-118.507202 33.430769 -8.8
-118.505485 33.431844 -6.1
-118.503905 33.432771 -1.8
-118.504657 33.433494 -1.5
-118.504074 33.434138 -1.5
-118.503977 33.434219 -1.5
-118.503796 33.434288 -2.1
-118.508155 33.428752 -12.2
-118.508585 33.430221 -10.7
-118.506257 33.431588 -7.3
-118.50638 33.43168 -7.6
-118.504071 33.432974 -1.5
-118.504782 33.432799 -4.9
-118.503269 33.433905 -0.9
-118.502513 33.434569 0.6
-118.502882 33.434702 -0.9
-118.508569 33.428202 -16.5
-118.508702 33.428966 -15.2
-118.509041 33.429913 -11.6
-118.507385 33.431427 -7.3
-118.504271 33.43243 -3.7
-118.504496 33.432835 -4.6
-118.502727 33.434799 -1.5
-118.509619 33.429885 -6.1
-118.507021 33.431155 -8.2
-118.506202 33.431185 -1.5
-118.507157 33.431452 -7.6
-118.505755 33.431666 -6.4
-118.508491 33.431685 -4.9
-118.505869 33.431977 -6.4
-118.504907 33.433896 -1.5
-118.508213 33.429313 -11.9
-118.509446 33.429688 -11.0
-118.508602 33.42971 -11.9
-118.509185 33.429955 -11.0
-118.509005 33.430019 -11.3
-118.504669 33.431669 -2.1
-118.505021 33.43193 -4.9
-118.506488 33.432016 -6.7
-118.504405 33.43326 -1.5
-118.507149 33.430527 -9.1
-118.502974 33.434952 -1.2
-118.507152 33.429921 -3.7
-118.508921 33.429946 -11.0
-118.506663 33.43043 -0.6
-118.503552 33.432094 -0.6
-118.50588 33.432335 -6.1
-118.508216 33.428319 -10.4
-118.505185 33.431399 -1.8
-118.508455 33.430516 -9.4
-118.504805 33.431796 -3.7
-118.507824 33.428585 -5.2
-118.508702 33.42866 -15.5
-118.505674 33.431438 0.6
-118.504135 33.432085 -3.0
-118.50481 33.432369 -5.5
-118.508138 33.430552 -9.8
-118.504905 33.431802 -3.4
-118.504044 33.432308 -3.0
-118.505763 33.432741 -4.9
-118.503635 33.433008 -0.9
-118.508182 33.429069 -13.1
-118.509138 33.43176 -4.0
-118.505269 33.432308 -6.4
-118.50388 33.432494 -2.4
-118.504374 33.43356 -1.5
-118.503435 33.433752 -1.5
-118.507024 33.430655 -7.3
-118.507294 33.431688 -6.4
-118.503846 33.432705 -1.5
-118.503363 33.433274 -0.6
-118.508985 33.429566 -12.5
-118.507324 33.428633 -2.4
-118.504616 33.432683 -4.6
-118.508877 33.429599 -12.8
-118.506416 33.43063 0.3
-118.508463 33.431296 -8.5
-118.505057 33.432808 -5.5
-118.505432 33.433252 -1.8
-118.504652 33.434121 -1.2
-118.50918 33.43106 -7.6
-118.504657 33.432263 -4.9
-118.505813 33.433091 -3.4
-118.503735 33.43366 -1.2
-118.503035 33.433863 0.9
-118.503049 33.434794 -1.8
-118.508252 33.42886 -12.8
-118.509032 33.430324 -9.8
-118.504999 33.431249 -1.2
-118.504444 33.431538 0.9
-118.504205 33.431699 -0.6
-118.50736 33.430505 -9.4
-118.50943 33.430555 -7.9
-118.50763 33.431755 -5.2
-118.504921 33.43271 -5.5
-118.504821 33.434038 -1.5
-118.503246 33.434555 -2.7
-118.502263 33.435069 -0.3
-118.504819 33.433433 -1.8
-118.504216 33.434235 -1.5
-118.508877 33.429596 -12.8
-118.507113 33.430899 -8.2
-118.50526 33.431258 -1.5
-118.506482 33.431302 -6.7
-118.503616 33.432388 -1.2
-118.507085 33.431866 -4.6
-118.504785 33.432624 -5.5
-118.504194 33.432924 -2.4
-118.506988 33.431369 -7.9
-118.504699 33.432024 -4.0
-118.504194 33.433058 -1.2
-118.503694 33.434471 -1.5
-118.502163 33.435155 -0.3
-118.508844 33.430319 -10.1
-118.505319 33.431377 -0.9
-118.508671 33.43181 -4.0
-118.505535 33.432599 -6.1
-118.501916 33.435208 0.9
-118.502185 33.435424 -0.6
-118.506163 33.431905 -7.3
-118.504294 33.432699 -3.7
-118.505094 33.433052 -4.6
-118.503146 33.43373 -0.3
-118.508874 33.428677 -16.5
-118.506624 33.431205 -7.9
-118.508919 33.43161 -5.2
-118.506332 33.431996 -7.0
-118.505327 33.432438 -6.7
-118.50533 33.432994 -4.6
-118.505182 33.433499 -1.8
-118.504285 33.433949 -1.2
-118.506082 33.431724 -7.6
-118.504371 33.432899 -2.4
-118.505671 33.433024 -4.0
-118.508385 33.429008 -13.7
-118.506691 33.431663 -7.0
-118.506224 33.431819 -7.6
-118.503349 33.433874 -1.5
-118.503607 33.434402 -1.8
-118.508955 33.430235 -10.4
-118.504402 33.431777 -2.4
-118.504716 33.432974 -4.6
-118.503413 33.434021 -1.5
-118.502049 33.435244 -0.3
-118.50898 33.430158 -10.7
-118.505066 33.431719 -4.3
-118.505207 33.432071 -5.8
-118.504441 33.432541 -4.3
-118.504941 33.43371 -1.2
-118.50956 33.430291 -7.3
-118.507913 33.430433 -10.1
-118.50691 33.430821 -8.8
-118.505674 33.43156 -5.5
-118.504202 33.43221 -3.4
-118.50573 33.432427 -6.4
-118.503419 33.433546 -1.2
-118.506266 33.431391 -7.3
-118.505463 33.431613 -5.5
-118.504449 33.432271 -4.0
-118.505544 33.432905 -4.9
-118.505038 33.433158 -3.4
-118.503694 33.434071 -1.5
-118.503588 33.43418 -1.5
-118.504771 33.434202 -1.8
-118.50296 33.43431 -0.6
-118.509288 33.429774 -10.4
-118.504632 33.431483 0.0
-118.50478 33.431688 -1.5
-118.504474 33.43318 -2.1
-118.503838 33.43373 -1.5
-118.501816 33.435341 0.9
-118.508702 33.431452 -6.1
-118.503777 33.432138 -1.5
-118.504969 33.43248 -5.8
-118.503727 33.433002 -0.9
-118.503502 33.433421 -1.2
-118.505274 33.433566 -1.5
-118.503619 33.433602 -1.2
-118.508282 33.43156 -5.8
-118.505899 33.43206 -7.3
-118.505066 33.432366 -6.1
-118.507532 33.428246 -3.0
-118.507435 33.429227 -6.7
-118.506285 33.430971 0.6
-118.505835 33.431377 0.3
-118.506499 33.431535 -7.6
-118.503763 33.433355 -1.2
-118.502346 33.435324 -0.9
-118.503982 33.432127 -2.4
-118.503896 33.43346 -1.5
-118.504071 33.433858 -1.5
-118.503174 33.434294 -1.5
-118.507563 33.428646 -4.0
-118.506544 33.429185 -0.6
-118.508424 33.429919 -11.3
-118.504816 33.431252 -0.3
-118.50391 33.431983 -0.6
-118.507252 33.428216 -0.3
-118.50946 33.430188 -9.4
-118.504891 33.431635 -2.1
-118.503732 33.432646 -1.8
-118.506582 33.428758 0.3
-118.507702 33.429088 -10.4
-118.503999 33.431699 0.3
-118.507785 33.43188 -3.7
-118.504646 33.43331 -1.8
-118.503307 33.432896 0.0
-118.507307 33.428771 -3.4
-118.508655 33.429277 -13.4
-118.504846 33.43136 0.0
-118.508805 33.431891 -3.0
-118.50363 33.432491 -1.2
-118.50326 33.433635 -0.6
-118.509432 33.430719 -7.6
-118.505605 33.431441 -0.3
-118.50451 33.432433 -4.9
-118.503771 33.433085 -1.2
-118.50871 33.430758 -8.8
-118.506341 33.430788 0.3
-118.503316 33.432591 -0.3
-118.505527 33.432696 -6.1
-118.503855 33.432821 -1.2
-118.503177 33.43473 -3.0
-118.507932 33.431319 -7.3
-118.505494 33.432377 -6.1
-118.505896 33.432541 -5.8
-118.503438 33.433188 -0.9
-118.50506 33.433819 -1.2
-118.505116 33.431246 -0.6
-118.505807 33.431488 -0.6
-118.504066 33.432577 -3.0
-118.503519 33.432235 -0.9
-118.503938 33.432927 -1.5
-118.505349 33.433355 -1.8
-118.50346 33.433933 -1.5
-118.508577 33.430635 -9.4
-118.505605 33.433188 -3.0
-118.502974 33.434633 -1.5
-118.50691 33.431788 -6.1
-118.50323 33.433213 1.2
-118.505016 33.43356 -1.5
-118.506724 33.428755 -0.6
-118.507157 33.430341 -6.1
-118.506491 33.430716 -0.6
-118.508969 33.430899 -8.5
-118.505927 33.431435 0.0
-118.505694 33.43231 -7.0
-118.504644 33.432533 -5.2
-118.507574 33.427974 -1.2
-118.50611 33.431508 -4.3
-118.503196 33.432377 0.9
-118.505674 33.432655 -5.5
-118.503585 33.434008 -1.5
-118.509449 33.42978 -9.4
-118.507332 33.43003 -7.3
-118.507744 33.43031 -9.8
-118.508607 33.430338 -10.1
-118.505802 33.432871 -4.9
-118.503216 33.432977 1.5
-118.504869 33.433044 -4.3
-118.507502 33.428938 -4.9
-118.506632 33.429663 -0.6
-118.506188 33.432005 -7.0
-118.505021 33.432049 -5.5
-118.508449 33.429219 -13.4
-118.505107 33.431546 -2.4
-118.505357 33.432171 -6.4
-118.503463 33.432652 -0.9
-118.503941 33.434055 -1.5
-118.507296 33.429816 -7.0
-118.505996 33.431246 0.0
-118.506244 33.431671 -7.6
-118.505496 33.43206 -7.3
-118.504096 33.434274 -1.8
-118.502271 33.435371 -0.6
-118.506982 33.430213 -3.4
-118.509252 33.430594 -9.1
-118.504624 33.433735 -1.5
-118.50358 33.434455 -2.1
-118.502377 33.434988 -0.3
-118.504338 33.432094 -3.7
-118.505805 33.432124 -6.7
-118.503557 33.431888 1.2
-118.504524 33.433838 -1.5
-118.503021 33.434435 -1.2
-118.508107 33.428844 -12.2
-118.508352 33.429569 -11.9
-118.50471 33.431458 0.3
-118.507321 33.431563 -7.3
-118.505282 33.431688 -4.9
-118.505177 33.432894 -5.5
-118.50336 33.433671 -1.2
-118.505044 33.433977 -1.5
-118.502371 33.43526 -1.2
-118.50903 33.430469 -9.8
-118.509255 33.43048 -8.5
-118.504746 33.431558 -0.3
-118.503232 33.432785 0.9
-118.502649 33.434741 -0.3
-118.50278 33.434971 -1.2
-118.509432 33.43118 -6.4
-118.508096 33.431419 -6.7
-118.503849 33.43206 -0.9
-118.508946 33.429463 -12.5
-118.503766 33.432413 -1.8
-118.503552 33.432713 -1.2
-118.503132 33.434024 -1.2
-118.508794 33.429977 -11.3
-118.505207 33.432396 -6.4
-118.504738 33.433152 -2.1
-118.504199 33.433638 -1.5
-118.503346 33.434621 -1.8
-118.508491 33.428385 -14.3
-118.508663 33.430141 -11.0
-118.505532 33.432296 -6.7
-118.504602 33.432894 -4.6
-118.503838 33.434146 -1.5
-118.509196 33.430127 -10.7
-118.505396 33.43143 -1.2
-118.503363 33.432808 -0.3
-118.502785 33.434638 -0.3
-118.507244 33.429074 -4.3
-118.507352 33.430905 -8.8
-118.505638 33.432002 -7.0
-118.505063 33.432277 -6.1
-118.505274 33.432694 -5.8
-118.506641 33.431316 -7.9
-118.503744 33.43178 1.2
-118.507632 33.429383 -8.8
-118.506357 33.429524 0.6
-118.50776 33.431205 -8.2
-118.509141 33.431333 -7.0
-118.506763 33.43143 -7.9
-118.507091 33.428983 -2.7
-118.507482 33.431658 -6.4
-118.503466 33.43438 -2.4
-118.506424 33.429696 1.2
-118.508824 33.429866 -11.6
-118.505424 33.431255 0.0
-118.504866 33.432144 -4.9
-118.504266 33.433463 -1.2
-118.503324 33.434166 -2.1
-118.502849 33.434871 -1.2
-118.505135 33.432149 -6.1
-118.503238 33.434113 -2.7
-118.506944 33.428516 0.3
-118.509224 33.430288 -9.8
-118.508905 33.430405 -10.4
-118.508546 33.430849 -8.5
-118.506666 33.430858 -4.3
-118.507538 33.431841 -4.6
-118.503627 33.43313 -1.2
-118.506463 33.429563 0.0
-118.507966 33.431821 -3.4
-118.503732 33.432219 -1.5
-118.503613 33.433252 -1.2
-118.505052 33.433405 -1.8
-118.508266 33.429874 -11.3
-118.507482 33.430371 -9.1
-118.508766 33.430469 -9.8
-118.503232 33.434227 -1.5
-118.508646 33.428783 -15.2
-118.505552 33.431566 -3.4
-118.506385 33.431913 -7.3
-118.50448 33.431985 -3.7
-118.50768 33.428446 -4.6
-118.503466 33.433077 -0.9
-118.509202 33.429619 -11.6
-118.508194 33.430449 -9.8
-118.509613 33.431313 -4.9
-118.50401 33.432238 -3.0
-118.504521 33.433008 -2.4
-118.503252 33.433494 -0.3
-118.504805 33.433602 -1.2
-118.506732 33.429338 -1.5
-118.504021 33.432894 -1.8
-118.502352 33.43473 0.6
-118.50203 33.435046 0.6
-118.507619 33.428238 -2.4
-118.506938 33.42951 -2.4
-118.508994 33.429727 -12.2
-118.509085 33.429799 -11.6
-118.506482 33.430283 0.3
-118.505849 33.431802 -7.6
-118.504991 33.433283 -2.1
-118.504502 33.434077 -1.5
-118.502213 33.434863 1.2
-118.507769 33.428908 -8.5
-118.503774 33.433941 -1.2
-118.505091 33.431374 -1.5
-118.505355 33.43191 -6.7
-118.504077 33.433544 -1.2
-118.503357 33.434299 -1.8
-118.509144 33.429716 -11.6
-118.50863 33.429827 -11.9
-118.503455 33.432333 -0.6
-118.504746 33.433808 -1.2
-118.504652 33.431558 -0.3
-118.505205 33.43181 -5.8
-118.505205 33.433041 -4.6
-118.505219 33.433258 -2.4
-118.503294 33.433824 -1.2
-118.503132 33.434141 -1.2
-118.508221 33.428135 -6.4
-118.504516 33.43158 -0.6
-118.504916 33.432221 -5.5
-118.508494 33.430319 -10.4
-118.506824 33.429746 -0.9
-118.508463 33.430613 -9.4
-118.504363 33.432355 -4.6
-118.505474 33.43251 -6.1
-118.503085 33.43441 -1.5
-118.502594 33.43503 -0.9
-118.501941 33.435346 -0.3
-118.507799 33.42878 -6.4
-118.504894 33.43193 -4.9
-118.504288 33.433066 -1.5
-118.503524 33.434327 -2.1
-118.50641 33.430996 -2.1
-118.506146 33.431113 0.6
-118.503569 33.432474 -1.2
-118.503216 33.432585 0.9
-118.504691 33.433941 -1.2
-118.505944 33.431613 -5.8
-118.504574 33.431899 -2.7
-118.507852 33.429546 -10.7
-118.509305 33.430163 -10.1
-118.505852 33.431716 -7.3
-118.503396 33.432019 0.9
-118.50263 33.435083 -1.2
-118.506874 33.428855 -1.5
-118.505124 33.43258 -5.8
-118.502699 33.434396 0.9
-118.509013 33.428058 -20.1
-118.507088 33.428596 -2.1
-118.507957 33.430905 -8.8
-118.507366 33.428046 -0.3
-118.50898 33.428985 -15.8
-118.508632 33.430055 -10.7
-118.503413 33.432735 -0.6
-118.505888 33.432766 -4.6
-118.502969 33.434744 -1.2
-118.505444 33.433088 -4.0
-118.50798 33.430274 -10.4
-118.50683 33.430535 -4.0
-118.50606 33.431871 -7.6
-118.503382 33.432455 -0.6
-118.504516 33.433644 -1.2
-118.507735 33.429888 -10.1
-118.508349 33.430719 -7.6
-118.509338 33.43151 -6.1
-118.503544 33.433283 -1.2
-118.502821 33.434238 0.9
-118.502885 33.434805 -1.5
-118.505188 33.431313 -1.5
-118.504349 33.43373 -1.5
-118.503385 33.432888 -0.6
-118.507771 33.431694 -4.6
-118.503471 33.432888 -0.9
-118.509357 33.428994 -15.2
-118.509282 33.42926 -13.7
-118.508057 33.429696 -11.3
-118.508974 33.429644 -11.9
-118.508819 33.430202 -10.4
-118.504855 33.433221 -2.1
-118.503602 33.433846 -1.2
-118.504166 33.433905 -1.5
-118.503113 33.434519 -1.8
-118.508896 33.430077 -10.7
-118.50393 33.43256 -1.8
-118.504399 33.432785 -4.0
-118.507855 33.428135 -4.9
-118.507869 33.42848 -7.9
-118.507002 33.43156 -7.6
-118.50883 33.428496 -17.1
-118.503521 33.432574 -0.9
-118.503574 33.432916 -0.9
-118.504141 33.432988 -1.5
-118.503907 33.433166 -1.2
-118.508488 33.429327 -12.2
-118.506435 33.430449 0.3
-118.504499 33.431644 -1.5
-118.507105 33.429658 -4.6
-118.506816 33.43126 -7.9
-118.504135 33.433388 -1.5
-118.508819 33.429266 -13.7
-118.504532 33.433391 -1.5
-118.508127 33.42941 -11.9
-118.508738 33.430996 -8.5
-118.504771 33.431321 -0.3
-118.504177 33.432644 -3.4
-118.50391 33.432394 -2.4
-118.507741 33.430124 -10.1
-118.507563 33.43106 -8.5
-118.504085 33.431966 -2.1
-118.502507 33.43501 0.0
-118.507102 33.428371 0.0
-118.50868 33.429538 -12.2
-118.50883 33.429727 -12.2
-118.50661 33.429894 -0.3
-118.507202 33.431319 -7.9
-118.507585 33.431566 -5.8
-118.505416 33.432813 -5.5
-118.503516 33.433549 -1.2
-118.50311 33.433658 0.9
-118.506049 33.431258 -0.3
-118.505152 33.433658 -1.5
-118.50343 33.434246 -2.4
-118.508649 33.429627 -12.5
-118.509491 33.429933 -8.5
-118.506802 33.430063 -0.9
-118.506482 33.430116 0.3
-118.504335 33.431833 -1.5
-118.505696 33.432191 -7.3
-118.503957 33.433783 -1.2
-118.508041 33.428691 -9.4
-118.506307 33.429319 0.3
-118.508913 33.431158 -7.9
-118.50388 33.432269 -2.4
-118.509291 33.42953 -12.5
-118.506844 33.430999 -7.9
-118.503688 33.43231 -1.5
-118.503707 33.432744 -0.9
-118.504294 33.433166 -1.5
-118.50873 33.429408 -12.8
-118.50378 33.434977 -0.3
-118.502677 33.435163 -1.2
-118.502913 33.435213 -0.6
-118.503135 33.435216 0.6
-118.50281 33.435271 -0.6
-118.502969 33.435274 0.6
-118.502552 33.435441 -0.3
-118.501713 33.435494 0.6
-118.502477 33.435494 -0.6
-118.502041 33.43551 -0.3
-118.50198 33.435585 0.0
-118.502282 33.435605 -0.6
-118.502677 33.435696 0.9
-118.502596 33.435799 0.6
-118.501744 33.435938 1.5
-118.501824 33.436066 1.5
-118.505616 33.429605 0.3
-118.505977 33.429752 0.3
-118.505499 33.429916 0.3
-118.505838 33.429983 0.3
-118.506085 33.430038 0.3
-118.505399 33.430049 0.3
-118.505819 33.430155 0.3
-118.50996 33.43016 -2.4
-118.50993 33.430305 -2.1
-118.505788 33.43033 -0.6
-118.509716 33.430338 -5.5
-118.509788 33.43043 -3.7
-118.50603 33.430485 0.9
-118.505091 33.430491 0.3
-118.509791 33.430516 -2.4
-118.50536 33.430577 -0.6
-118.505669 33.430871 0.6
-118.510052 33.430885 -0.3
-118.505449 33.430966 -0.9
-118.509824 33.430971 -3.4
-118.505149 33.430988 -0.9
-118.505377 33.431083 -1.2
-118.510085 33.431205 -0.6
-118.510116 33.43133 -0.3
-118.509757 33.431888 -2.4
-118.509385 33.43193 -2.4
-118.508988 33.432019 -2.4
-118.508291 33.432071 -1.5
-118.506374 33.432152 -5.5
-118.504969 33.434158 -1.8
-118.504882 33.43426 -1.8
-118.505021 33.434308 -1.2
-118.505346 33.434474 0.3
-118.503807 33.43453 -1.2
-118.504096 33.434627 -0.9
-118.503599 33.434749 -0.9
-118.503482 33.43476 -1.2
-118.508341 33.432163 -0.6
-118.509527 33.432183 0.6
-118.506619 33.43223 -4.0
-118.506524 33.432283 -2.7
-118.506766 33.432319 -1.2
-118.506035 33.432469 -5.5
-118.506641 33.432499 -0.3
-118.506244 33.432774 -3.4
-118.505988 33.432833 -3.7
-118.506557 33.432871 -0.6
-118.506407 33.432883 -2.1
-118.506213 33.433013 -1.8
-118.506182 33.433144 -2.1
-118.506374 33.433202 0.0
-118.505716 33.433263 -1.5
-118.505849 33.433358 -1.5
-118.505971 33.433546 -0.3
-118.505888 33.433585 -0.3
-118.505371 33.433638 -1.8
-118.505771 33.433774 -0.3
-118.505594 33.434063 0.0
-118.503996 33.434969 0.6
-118.503388 33.434977 -0.3
-118.50273 33.435588 0.9
-118.506071 33.430171 0.6
-118.505249 33.430777 -0.6
-118.505516 33.430977 0.3
-118.505155 33.431077 -1.2
-118.509071 33.432249 0.9
-118.506007 33.433466 -0.9
-118.502782 33.435463 0.6
-118.505644 33.430674 0.3
-118.507235 33.432216 -0.9
-118.506238 33.433308 0.3
-118.510213 33.429902 -2.1
-118.50531 33.430163 0.3
-118.505821 33.430763 1.5
-118.50323 33.434899 -2.7
-118.503302 33.434927 -1.2
-118.507549 33.432274 -0.3
-118.505527 33.433869 -1.5
-118.505177 33.433941 -1.5
-118.502102 33.435724 -0.3
-118.505021 33.430674 0.6
-118.510082 33.431988 0.3
-118.505157 33.43438 -0.9
-118.505324 33.434063 -0.9
-118.510057 33.430213 -1.2
-118.507927 33.432016 -2.4
-118.505121 33.434233 -1.2
-118.504669 33.434516 -0.3
-118.504335 33.434791 1.2
-118.505938 33.430616 1.2
-118.506055 33.43266 -4.6
-118.506057 33.432908 -3.0
-118.505946 33.432969 -4.0
-118.502727 33.435321 -0.9
-118.506721 33.432185 -3.0
-118.508238 33.432191 -0.3
-118.510141 33.431513 -0.3
-118.501699 33.435644 0.6
-118.509705 33.429983 -5.2
-118.506074 33.430333 0.9
-118.510005 33.430627 -0.6
-118.506394 33.432799 -1.8
-118.506091 33.433433 0.0
-118.510155 33.431677 -0.3
-118.50466 33.434666 0.9
-118.506924 33.432269 -0.3
-118.505685 33.433552 -1.5
-118.50333 33.435174 0.3
-118.505552 33.434202 0.3
-118.503982 33.43446 -0.9
-118.503477 33.434683 -1.2
-118.506235 33.432641 -3.4
-118.506474 33.432121 -6.4
-118.504019 33.434766 -0.6
-118.508171 33.432274 0.3
-118.506494 33.433035 -0.3
-118.501719 33.435827 0.9
-118.507449 33.432069 -1.8
-118.504824 33.434613 0.9
-118.502666 33.43536 -0.3
-118.502119 33.435477 -0.6
-118.502524 33.435924 0.9
-118.507277 33.431977 -3.4
-118.503705 33.434813 -0.3
-118.502346 33.436133 1.2
-118.505791 33.429824 0.6
-118.505016 33.431138 -0.3
-118.504363 33.43441 -1.2
-118.50571 33.43348 -1.5
-118.505455 33.433727 -1.8
-118.505355 33.433777 -1.8
-118.505671 33.43393 0.0
-118.50643 33.42891 0.3
-118.507816 33.431958 -3.4
-118.50808 33.432105 -1.5
-118.504163 33.434908 0.6
-118.505552 33.433805 -1.5
-118.509871 33.432083 0.6
-118.504213 33.434344 -1.8
-118.503682 33.434546 -1.5
-118.507155 33.432249 -0.3
-118.502499 33.435174 -1.2
-118.504902 33.431063 0.9
-118.510002 33.431569 -1.2
-118.502463 33.436038 0.9
-118.505877 33.429599 0.6
-118.505696 33.430016 0.3
-118.509552 33.431688 -4.9
-118.50426 33.434666 -0.9
-118.508494 33.432202 -0.6
-118.506585 33.432677 -0.3
-118.505941 33.433144 -2.1
-118.50218 33.435794 0.0
-118.509896 33.430458 -2.7
-118.510024 33.430746 -0.3
-118.504532 33.434413 -1.2
-118.504466 33.434708 1.2
-118.509913 33.429996 -3.0
-118.505177 33.434527 0.3
-118.504174 33.43456 -0.6
-118.508646 33.432271 0.9
-118.506177 33.432385 -4.6
-118.510052 33.430094 -1.8
-118.50688 33.431983 -5.2
-118.509696 33.432158 0.9
-118.508855 33.432255 0.9
-118.506527 33.432641 -0.6
-118.503052 33.435005 -1.2
-118.502582 33.435369 -0.9
-118.502157 33.436171 1.2
-118.509116 33.432096 -1.5
-118.507644 33.432152 -0.6
-118.506841 33.432271 -0.3
-118.50606 33.433058 -2.7
-118.505866 33.433677 -0.3
-118.502982 33.435155 -0.3
-118.502794 33.435346 0.6
-118.50548 33.430377 -0.3
-118.509646 33.430855 -5.5
-118.504369 33.434324 -1.5
-118.504991 33.434558 0.6
-118.507963 33.432283 0.9
-118.506727 33.432391 -0.6
-118.501866 33.435483 0.0
-118.502338 33.435691 0.0
-118.501996 33.436149 1.5
-118.50706 33.432102 -3.0
-118.505452 33.434349 0.6
-118.505302 33.43438 -0.9
-118.509716 33.430121 -4.6
-118.509982 33.430491 -0.9
-118.503969 33.434591 -0.9
-118.50841 33.432263 0.6
-118.506369 33.432538 -2.4
-118.506041 33.43321 -1.8
-118.50553 33.433455 -1.8
-118.503805 33.435035 0.9
-118.505566 33.429752 0.9
-118.505527 33.430838 -0.3
-118.508146 33.431938 -2.1
-118.509605 33.432085 -0.6
-118.505357 33.434144 -0.9
-118.503649 33.434866 -0.9
-118.505202 33.434055 -1.2
-118.50286 33.435169 -0.6
-118.505716 33.430491 0.3
-118.510071 33.431044 -0.6
-118.506613 33.432091 -5.5
-118.503932 33.434705 -0.9
-118.509344 33.432196 -0.3
-118.503677 33.435069 0.6
-118.503485 33.435127 0.6
-118.50186 33.435646 0.0
-118.505863 33.429816 0.3
-118.505577 33.430194 -0.3
-118.505469 33.431163 0.9
-118.505735 33.429535 0.6
-118.506038 33.429891 0.3
-118.505194 33.430313 0.3
-118.505291 33.431185 -0.6
-118.507752 33.432269 0.0
-118.509299 33.432277 0.6
-118.509819 33.430088 -3.7
-118.509994 33.430363 -0.6
-118.510152 33.431846 0.0
-118.506657 33.432399 -0.9
-118.506302 33.432994 -2.1
-118.50618 33.433269 -0.3
-118.505594 33.433383 -1.5
-118.509813 33.431438 -2.7
-118.503132 33.435088 -0.3
-118.509882 33.429819 -8.5
-118.504944 33.430852 0.3
-118.507341 33.432263 0.0
