-118.503752 33.412213 -78.6
-118.501871 33.456801 -64.0
-118.507263 33.456895 -47.5
-118.463047 33.441071 -12.8
-118.521928 33.409974 -102.4
-118.519608 33.412069 -93.3
-118.517538 33.461012 -14.2
-118.507496 33.41838 -69.5
-118.474634 33.447788 -80.5
-118.471009 33.447949 -111.6
-118.481215 33.449488 -53.0
-118.500471 33.452888 -19.7
-118.50793 33.423435 -47.5
-118.518671 33.460918 -1.5
-118.495993 33.441935 -3.0
-118.496915 33.453899 -56.7
-118.512157 33.424033 -15.5
-118.509099 33.425683 -36.6
-118.519955 33.462945 -29.3
-118.518824 33.464609 -43.9
-118.519624 33.464829 -38.4
-118.497116 33.44336 -9.8
-118.518227 33.467259 -54.9
-118.486737 33.44468 -3.0
-118.493673 33.456873 -60.4
-118.521461 33.417891 -87.8
-118.493015 33.446277 -31.1
-118.497896 33.446416 -23.8
-118.488695 33.446946 -36.6
-118.496812 33.462629 -73.2
-118.489509 33.407695 -21.9
-118.495365 33.447888 -34.7
-118.502924 33.406303 -86.0
-118.485684 33.448708 -54.9
-118.48682 33.449183 -51.2
-118.513727 33.408539 -95.1
-118.49901 33.415955 -58.5
-118.49976 33.417619 -54.9
-118.51241 33.410533 -87.8
-118.497799 33.420319 -20.1
-118.481323 33.450758 -76.8
-118.469492 33.456107 -217.6
-118.510435 33.460137 -27.4
-118.509182 33.460187 -32.9
-118.492534 33.451121 -43.9
-118.509432 33.418213 -76.8
-118.508291 33.420185 -65.8
-118.503777 33.461823 -75.0
-118.517421 33.466065 -56.7
-118.483165 33.44988 -60.4
-118.489318 33.453721 -43.9
-118.507982 33.424069 -40.2
-118.49599 33.442555 -7.0
-118.519557 33.465595 -43.9
-118.485195 33.455876 -80.5
-118.496543 33.444319 -23.8
-118.487098 33.444574 -3.7
-118.493134 33.457976 -60.4
-118.486587 33.403225 -19.2
-118.493968 33.446705 -32.9
-118.491973 33.409489 -45.7
-118.497027 33.410072 -65.8
-118.495612 33.447113 -32.9
-118.50076 33.447344 -3.4
-118.502821 33.450846 -3.0
-118.496043 33.462082 -67.7
-118.500877 33.411275 -75.0
-118.498955 33.411342 -69.5
-118.504488 33.453583 -2.1
-118.496905 33.413288 -60.4
-118.496902 33.415194 -54.9
-118.509491 33.407781 -91.4
-118.507321 33.455537 -15.1
-118.502452 33.410397 -78.6
-118.502219 33.410997 -78.6
-118.489251 33.418608 -6.7
-118.513374 33.416352 -86.0
-118.502902 33.416599 -65.8
-118.464511 33.448846 -181.1
-118.488443 33.450216 -32.9
-118.48754 33.45071 -2.1
-118.507432 33.419666 -65.8
-118.473609 33.447519 -82.3
-118.483968 33.448116 -31.1
-118.510577 33.463312 -62.2
-118.516505 33.422055 -31.1
-118.514588 33.422263 -18.7
-118.504927 33.424113 -9.8
-118.507257 33.424449 -20.1
-118.516652 33.424633 -17.4
-118.492431 33.442916 -7.0
-118.493512 33.454199 -54.9
-118.499085 33.454477 -54.9
-118.488406 33.44656 -36.6
-118.489931 33.461604 -69.5
-118.493745 33.464837 -78.6
-118.500921 33.45173 -14.2
-118.496651 33.467518 -126.2
-118.501844 33.40852 -82.3
-118.507538 33.40995 -86.0
-118.491437 33.415999 -18.3
-118.494801 33.449427 -40.2
-118.511585 33.456409 -6.4
-118.505944 33.457434 -58.5
-118.500513 33.419071 -49.4
-118.488798 33.411935 -16.5
-118.498302 33.448327 -31.1
-118.500985 33.452166 -17.4
-118.495882 33.414644 -53.0
-118.504832 33.409003 -84.1
-118.505757 33.409717 -84.1
-118.492195 33.415921 -20.1
-118.51026 33.456293 -14.6
-118.49988 33.419819 -36.6
-118.483962 33.450135 -67.7
-118.510724 33.458204 -34.7
-118.510285 33.458645 -40.2
-118.476815 33.45572 -181.1
-118.469817 33.443116 -32.9
-118.514485 33.417774 -84.1
-118.508971 33.460601 -25.6
-118.505705 33.460662 -62.2
-118.505705 33.418794 -64.0
-118.507444 33.420288 -64.0
-118.513999 33.464401 -67.7
-118.476684 33.449202 -78.6
-118.493912 33.441696 -2.1
-118.49454 33.441824 -2.4
-118.494829 33.441927 -3.4
-118.520471 33.463051 -27.4
-118.520838 33.463704 -27.4
-118.519027 33.463982 -40.2
-118.512069 33.426374 -13.3
-118.520649 33.465907 -34.7
-118.495076 33.443519 -17.4
-118.486265 33.455779 -76.8
-118.521796 33.467659 -32.9
-118.499219 33.460126 -67.7
-118.490545 33.463045 -64.0
-118.493626 33.463126 -58.5
-118.487868 33.407972 -14.2
-118.492488 33.408081 -51.2
-118.50136 33.451363 -11.6
-118.494415 33.448202 -36.6
-118.493912 33.468515 -144.5
-118.494066 33.414552 -43.9
-118.507596 33.455662 -16.0
-118.506244 33.455995 -32.9
-118.490801 33.449335 -11.3
-118.500205 33.449974 -3.4
-118.512796 33.456657 -0.6
-118.500352 33.421496 -14.2
-118.507449 33.459565 -53.0
-118.465119 33.442696 -67.7
-118.467344 33.444588 -82.3
-118.466272 33.446744 -120.7
-118.493015 33.419808 -12.2
-118.513682 33.457584 -11.3
-118.462597 33.443891 -82.3
-118.518566 33.415352 -89.6
-118.484404 33.451466 -73.2
-118.515877 33.463351 -49.4
-118.519213 33.461212 -0.9
-118.496563 33.442405 -5.8
-118.492718 33.442444 -1.5
-118.486418 33.453688 -65.8
-118.48762 33.453949 -54.9
-118.517349 33.424335 -23.8
-118.506541 33.425335 -11.0
-118.512121 33.426949 -11.3
-118.491195 33.444483 -16.9
-118.489076 33.444663 -3.4
-118.518599 33.418416 -86.0
-118.485768 33.445541 -17.8
-118.521475 33.427844 -17.8
-118.503105 33.450733 -1.2
-118.48934 33.411552 -18.7
-118.491645 33.447835 -23.8
-118.48754 33.465779 -129.8
-118.490056 33.46764 -144.5
-118.500402 33.46954 -131.7
-118.499137 33.472423 -173.7
-118.494813 33.414558 -47.5
-118.487026 33.448655 -51.2
-118.515316 33.40868 -95.1
-118.514213 33.408971 -93.3
-118.50621 33.454616 -8.2
-118.508474 33.455595 -8.8
-118.495671 33.417302 -42.1
-118.494846 33.41756 -34.7
-118.492106 33.418833 -14.2
-118.490062 33.419208 -6.4
-118.506319 33.414871 -78.6
-118.501057 33.415708 -65.8
-118.506024 33.460234 -60.4
-118.500582 33.450299 -15.1
-118.471154 33.443699 -69.5
-118.474376 33.446019 -69.5
-118.499782 33.450358 -25.6
-118.494009 33.450877 -45.7
-118.515749 33.419733 -80.5
-118.471801 33.44271 -18.3
-118.487526 33.450244 -7.6
-118.511674 33.460795 -27.4
-118.511216 33.461195 -12.5
-118.473906 33.445621 -73.2
-118.476593 33.447352 -27.4
-118.477151 33.449871 -80.5
-118.496743 33.452699 -53.0
-118.516427 33.466118 -65.8
-118.517627 33.462129 -27.4
-118.495184 33.442324 -5.5
-118.508038 33.425199 -25.6
-118.518282 33.463251 -34.7
-118.497844 33.443119 -6.7
-118.507596 33.426705 -7.3
-118.494262 33.45709 -60.4
-118.520082 33.468504 -47.5
-118.517655 33.426383 -16.5
-118.498957 33.407386 -76.8
-118.495073 33.446646 -32.9
-118.495044 33.407811 -62.2
-118.488984 33.447896 -36.6
-118.48867 33.448299 -40.2
-118.495484 33.448746 -38.4
-118.50576 33.408117 -86.0
-118.510555 33.455923 -2.1
-118.487045 33.449541 -42.1
-118.496902 33.418694 -42.1
-118.478065 33.451958 -89.6
-118.505577 33.414877 -76.8
-118.513277 33.460179 -34.7
-118.485406 33.450641 -69.5
-118.504835 33.46249 -78.6
-118.512285 33.463118 -51.2
-118.490587 33.451633 -34.7
-118.502282 33.42046 -25.6
-118.492915 33.448244 -31.1
-118.500055 33.467518 -113.4
-118.497038 33.412658 -62.2
-118.486737 33.448963 -51.2
-118.491331 33.449196 -8.8
-118.506994 33.407614 -87.8
-118.510416 33.41096 -87.8
-118.505321 33.411071 -82.3
-118.508541 33.415046 -80.5
-118.465053 33.441966 -34.7
-118.478615 33.452316 -89.6
-118.47819 33.452327 -95.1
-118.510977 33.459087 -34.7
-118.477109 33.457926 -195.7
-118.490865 33.450133 -20.1
-118.475681 33.44636 -43.9
-118.50761 33.419896 -64.0
-118.51586 33.462204 -38.4
-118.502669 33.462468 -78.6
-118.474026 33.447391 -80.5
-118.485656 33.451285 -67.7
-118.513507 33.422027 -20.1
-118.505263 33.422621 -31.1
-118.494356 33.441855 -3.7
-118.49734 33.453185 -54.9
-118.522474 33.466532 -20.1
-118.492523 33.443541 -12.8
-118.489012 33.455549 -53.0
-118.520235 33.467376 -43.9
-118.498121 33.444427 -6.1
-118.489348 33.445019 -8.8
-118.498502 33.409042 -69.5
-118.48934 33.447594 -32.9
-118.51036 33.46212 -42.1
-118.508302 33.420905 -64.0
-118.50698 33.465376 -80.5
-118.475345 33.448802 -82.3
-118.473945 33.449877 -98.8
-118.507696 33.423563 -40.2
-118.51831 33.46097 -9.1
-118.484893 33.453533 -76.8
-118.505955 33.423874 -18.7
-118.518532 33.462954 -31.1
-118.493479 33.442685 -7.9
-118.510602 33.427863 -17.4
-118.493548 33.456195 -58.5
-118.506077 33.468837 -96.9
-118.491787 33.456418 -56.7
-118.490759 33.457373 -60.4
-118.492354 33.457551 -56.7
-118.489273 33.460448 -76.8
-118.489301 33.460634 -76.8
-118.489487 33.405742 -23.8
-118.500357 33.46204 -76.8
-118.491904 33.447246 -27.4
-118.500299 33.464876 -93.3
-118.506246 33.465676 -82.3
-118.493143 33.452866 -51.2
-118.505291 33.42186 -47.5
-118.512596 33.46654 -78.6
-118.518805 33.46167 -13.3
-118.48689 33.453388 -53.0
-118.517363 33.425066 -20.1
-118.515627 33.466734 -73.2
-118.50856 33.428219 -16.5
-118.49017 33.456459 -38.4
-118.49637 33.460084 -65.8
-118.498023 33.460309 -67.7
-118.487151 33.405481 -15.1
-118.486395 33.406339 -13.3
-118.497388 33.446055 -27.4
-118.495515 33.446185 -31.1
-118.496254 33.447477 -34.7
-118.493818 33.464243 -69.5
-118.501888 33.451358 -6.7
-118.502019 33.453969 -13.3
-118.499007 33.448741 -21.9
-118.50123 33.455333 -58.5
-118.499016 33.417355 -54.9
-118.496963 33.41751 -47.5
-118.485618 33.449383 -58.5
-118.489745 33.449419 -31.1
-118.499324 33.449527 -14.2
-118.500482 33.419752 -36.6
-118.482145 33.451713 -78.6
-118.509555 33.413619 -84.1
-118.508224 33.458287 -53.0
-118.467069 33.445463 -87.8
-118.471823 33.442541 -14.2
-118.470055 33.443196 -40.2
-118.491606 33.450077 -29.3
-118.51048 33.462915 -51.2
-118.514749 33.462951 -51.2
-118.516549 33.463732 -49.4
-118.51116 33.463737 -62.2
-118.494948 33.442141 -4.9
-118.497621 33.442244 -3.0
-118.497727 33.442335 -3.7
-118.516724 33.424349 -23.8
-118.520716 33.464248 -29.3
-118.494698 33.443291 -15.1
-118.488876 33.454821 -51.2
-118.520495 33.417188 -87.8
-118.496131 33.444288 -21.9
-118.496426 33.444938 -27.4
-118.486398 33.445249 -17.8
-118.518499 33.425838 -20.1
-118.490034 33.461429 -69.5
-118.490104 33.409725 -21.9
-118.50013 33.409784 -75.0
-118.50018 33.447366 -5.5
-118.490454 33.448144 -4.9
-118.506363 33.457084 -56.7
-118.499055 33.41848 -49.4
-118.480365 33.451813 -82.3
-118.501941 33.414258 -73.2
-118.503044 33.414813 -73.2
-118.51121 33.457659 -29.3
-118.506802 33.416299 -76.8
-118.517735 33.411158 -93.3
-118.464053 33.442591 -64.0
-118.485712 33.450219 -60.4
-118.491881 33.450269 -36.6
-118.473929 33.444835 -58.5
-118.509371 33.418866 -75.0
-118.476087 33.44838 -73.2
-118.477587 33.448508 -8.2
-118.489784 33.451196 -25.6
-118.504963 33.421024 -51.2
-118.482773 33.449846 -56.7
-118.480365 33.450021 -69.5
-118.493798 33.442091 -4.3
-118.49549 33.442994 -10.7
-118.502671 33.468757 -107.9
-118.500419 33.456665 -62.2
-118.488956 33.456795 -60.4
-118.490648 33.457726 -60.4
-118.51846 33.42263 -62.2
-118.487801 33.403481 -20.1
-118.493287 33.446902 -31.1
-118.495645 33.462762 -71.3
-118.496485 33.408192 -67.7
-118.488423 33.410339 -17.4
-118.501585 33.453933 -17.8
-118.506402 33.455209 -18.7
-118.509394 33.410135 -87.8
-118.501216 33.412569 -73.2
-118.512749 33.456815 -7.9
-118.501907 33.415994 -67.7
-118.503249 33.458482 -67.7
-118.499938 33.42106 -17.8
-118.474284 33.455248 -197.5
-118.482465 33.455265 -89.6
-118.508391 33.45952 -49.4
-118.466822 33.445702 -89.6
-118.470568 33.44341 -40.2
-118.47597 33.45882 -212.1
-118.486318 33.451013 -54.9
-118.509055 33.462784 -67.7
-118.500996 33.463162 -80.5
-118.487512 33.452044 -36.6
-118.488504 33.452863 -27.4
-118.479004 33.44988 -69.5
-118.491143 33.453813 -36.6
-118.490443 33.454255 -29.3
-118.509666 33.426313 -31.1
-118.521627 33.466612 -31.1
-118.499438 33.443466 -1.8
-118.489976 33.45634 -42.1
-118.508363 33.428652 -13.3
-118.487523 33.459993 -82.3
-118.518405 33.424649 -27.4
-118.49963 33.409475 -75.0
-118.501474 33.450377 -7.3
-118.488448 33.448838 -40.2
-118.513552 33.411441 -89.6
-118.508071 33.456162 -25.6
-118.50536 33.456176 -49.4
-118.509049 33.45682 -34.7
-118.508688 33.413405 -82.3
-118.515291 33.457962 -5.8
-118.471645 33.456273 -215.8
-118.52155 33.409666 -102.4
-118.48812 33.450155 -27.4
-118.514599 33.460998 -38.4
-118.517149 33.420913 -75.0
-118.506099 33.421688 -54.9
-118.499263 33.452613 -38.4
-118.481512 33.44993 -58.5
-118.510071 33.423669 -56.7
-118.495098 33.442819 -9.1
-118.490195 33.454821 -27.4
-118.491612 33.45496 -31.1
-118.490137 33.455274 -27.4
-118.484512 33.455462 -82.3
-118.490654 33.455488 -29.3
-118.506332 33.431585 -7.6
-118.519035 33.467759 -43.9
-118.494193 33.444491 -25.6
-118.498599 33.456495 -62.2
-118.494809 33.458045 -62.2
-118.488493 33.446219 -34.7
-118.486995 33.446744 -31.1
-118.492245 33.462223 -36.6
-118.493193 33.462734 -45.7
-118.488912 33.41012 -19.2
-118.489926 33.44828 -13.3
-118.486009 33.448899 -54.9
-118.492143 33.449516 -11.9
-118.484873 33.450005 -65.8
-118.500105 33.420327 -23.8
-118.511385 33.415191 -84.1
-118.510099 33.457851 -36.6
-118.513538 33.458751 -31.1
-118.500146 33.42083 -19.2
-118.468847 33.451999 -195.7
-118.517319 33.45959 -7.9
-118.480759 33.461729 -190.2
-118.508713 33.460909 -21.9
-118.49169 33.450777 -36.6
-118.513549 33.420169 -78.6
-118.517552 33.462768 -31.1
-118.50843 33.463212 -75.0
-118.483901 33.448288 -36.6
-118.482959 33.448433 -38.4
-118.485354 33.451441 -71.3
-118.504255 33.420705 -47.5
-118.510499 33.421299 -71.3
-118.506819 33.422427 -53.0
-118.512144 33.423052 -15.5
-118.519455 33.461343 -1.2
-118.497816 33.454077 -56.7
-118.498488 33.442496 -0.6
-118.492015 33.442921 -5.5
-118.49547 33.443216 -13.7
-118.491768 33.454574 -42.1
-118.512119 33.426624 -13.3
-118.503571 33.466754 -86.0
-118.49174 33.443919 -12.8
-118.492515 33.444258 -23.8
-118.49928 33.45689 -64.0
-118.491995 33.445083 -27.4
-118.49898 33.446955 -17.8
-118.49307 33.447169 -31.1
-118.499813 33.447188 -7.9
-118.490956 33.468215 -164.6
-118.490065 33.412888 -18.3
-118.497738 33.413596 -60.4
-118.485031 33.448713 -54.9
-118.507657 33.455854 -19.7
-118.495644 33.418038 -40.2
-118.487454 33.449344 -47.5
-118.49244 33.449991 -31.1
-118.510996 33.456176 -8.8
-118.501052 33.457118 -62.2
-118.497363 33.420049 -27.4
-118.493816 33.420138 -11.9
-118.474845 33.451791 -139.0
-118.513385 33.41558 -86.0
-118.51623 33.45887 -5.5
-118.477756 33.454926 -160.9
-118.491301 33.450063 -21.9
-118.507699 33.417194 -75.0
-118.510638 33.460659 -16.0
-118.511138 33.461054 -14.3
-118.504277 33.418585 -60.4
-118.515738 33.462598 -42.1
-118.513494 33.421671 -34.7
-118.486506 33.452805 -58.5
-118.518319 33.461584 -14.2
-118.494243 33.441791 -3.7
-118.488809 33.453841 -49.4
-118.491112 33.453963 -32.9
-118.494762 33.454033 -56.7
-118.519255 33.462309 -20.1
-118.519924 33.462737 -25.6
-118.508896 33.428674 -16.5
-118.522777 33.466934 -21.9
-118.48767 33.444944 -5.8
-118.488973 33.45847 -75.0
-118.52201 33.468354 -34.7
-118.487868 33.445946 -32.9
-118.488573 33.461909 -80.5
-118.492673 33.464532 -62.2
-118.501146 33.449902 -4.3
-118.488884 33.41108 -17.8
-118.490901 33.448452 -4.9
-118.498137 33.466229 -109.7
-118.490504 33.471295 -195.7
-118.489206 33.449069 -34.7
-118.489812 33.416574 -12.5
-118.493718 33.449708 -40.2
-118.511588 33.457032 -19.2
-118.506349 33.457432 -56.7
-118.476256 33.45056 -86.0
-118.48084 33.452724 -84.1
-118.479465 33.453724 -102.4
-118.518638 33.409371 -96.9
-118.515521 33.459895 -31.1
-118.464739 33.443358 -76.8
-118.487306 33.450113 -19.2
-118.504869 33.417127 -69.5
-118.472206 33.446619 -82.3
-118.497407 33.450694 -45.7
-118.512035 33.419521 -76.8
-118.479951 33.448599 -21.9
-118.489862 33.451719 -23.8
-118.480287 33.44931 -56.7
-118.492623 33.452191 -49.4
-118.495179 33.452224 -51.2
-118.499919 33.453021 -32.9
-118.517624 33.459957 -7.3
-118.489293 33.453416 -42.1
-118.488604 33.45376 -49.4
-118.489765 33.453871 -42.1
-118.500069 33.45413 -47.5
-118.506532 33.424174 -17.8
-118.512035 33.425794 -11.3
-118.490965 33.454205 -32.9
-118.490698 33.455091 -21.9
-118.48914 33.45518 -49.4
-118.508271 33.46684 -82.3
-118.490984 33.455202 -29.3
-118.485915 33.456273 -78.6
-118.509716 33.428546 -16.9
-118.505921 33.431958 -6.4
-118.517235 33.467851 -62.2
-118.515024 33.468173 -80.5
-118.48602 33.44426 -3.7
-118.484445 33.458265 -91.4
-118.491951 33.461032 -51.2
-118.487084 33.44616 -29.3
-118.490606 33.446352 -27.4
-118.49843 33.408745 -71.3
-118.50496 33.454249 -8.5
-118.486254 33.449099 -54.9
-118.511355 33.408584 -91.4
-118.501694 33.455177 -53.0
-118.47949 33.45043 -75.0
-118.482834 33.452224 -78.6
-118.509105 33.45994 -36.6
-118.465972 33.443758 -78.6
-118.460428 33.444821 -89.6
-118.505646 33.417269 -71.3
-118.472787 33.445677 -80.5
-118.500585 33.450444 -18.3
-118.484912 33.450546 -69.5
-118.488012 33.450977 -1.2
-118.516891 33.462723 -34.7
-118.511716 33.463054 -67.7
-118.497126 33.451321 -49.4
-118.511752 33.463595 -56.7
-118.510485 33.46557 -82.3
-118.48684 33.452563 -53.0
-118.496109 33.441641 -0.3
-118.497196 33.442166 -3.4
-118.499657 33.454902 -54.9
-118.510052 33.428105 -20.1
-118.517952 33.465415 -53.0
-118.522596 33.466184 -6.1
-118.489806 33.455552 -36.6
-118.508146 33.428391 -10.4
-118.523347 33.419149 -86.0
-118.496606 33.459232 -64.0
-118.486126 33.405342 -14.2
-118.49027 33.44673 -29.3
-118.493556 33.465118 -80.5
-118.494948 33.465184 -95.1
-118.490318 33.44893 -14.2
-118.503802 33.407756 -84.1
-118.488056 33.415483 -11.0
-118.492595 33.449649 -12.2
-118.50708 33.410663 -84.1
-118.516524 33.458676 -0.3
-118.505013 33.416319 -73.2
-118.504327 33.416513 -71.3
-118.515716 33.459157 -20.1
-118.506727 33.459962 -54.9
-118.508266 33.45999 -40.2
-118.462372 33.44713 -150.0
-118.472215 33.443008 -27.4
-118.484384 33.450119 -67.7
-118.508513 33.417341 -76.8
-118.509894 33.461437 -18.7
-118.472129 33.445946 -82.3
-118.495751 33.450424 -45.7
-118.495004 33.450702 -47.5
-118.512955 33.419644 -78.6
-118.47065 33.447991 -111.6
-118.481187 33.448266 -7.3
-118.508477 33.464118 -76.8
-118.479551 33.448791 -31.1
-118.494656 33.452363 -51.2
-118.489834 33.452471 -21.9
-118.494098 33.441805 -3.0
-118.493437 33.44243 -4.0
-118.509544 33.423749 -54.9
-118.497152 33.442863 -7.3
-118.507791 33.427733 -2.7
-118.510135 33.467026 -82.3
-118.485548 33.457207 -84.1
-118.491768 33.458576 -60.4
-118.485418 33.45984 -91.4
-118.517802 33.424313 -27.4
-118.519071 33.425088 -25.6
-118.518127 33.42668 -16.9
-118.487859 33.405853 -17.8
-118.489112 33.446216 -32.9
-118.49254 33.462654 -17.4
-118.492465 33.464712 -62.2
-118.502385 33.450983 -4.3
-118.502291 33.451655 -5.8
-118.494935 33.410281 -58.5
-118.488626 33.448116 -38.4
-118.497705 33.412474 -64.0
-118.488773 33.413671 -15.1
-118.494835 33.416883 -40.2
-118.516282 33.411194 -91.4
-118.511388 33.412185 -86.0
-118.493218 33.418685 -16.5
-118.483537 33.45041 -69.5
-118.515874 33.458304 -3.7
-118.466219 33.441558 -23.8
-118.467264 33.442144 -23.8
-118.475265 33.454546 -181.1
-118.51985 33.409821 -98.8
-118.466347 33.444938 -84.1
-118.469639 33.442835 -20.1
-118.47299 33.446674 -82.3
-118.499838 33.450558 -29.3
-118.494931 33.451094 -47.5
-118.512455 33.419858 -78.6
-118.489145 33.451146 -13.3
-118.508494 33.420738 -65.8
-118.507457 33.421588 -60.4
-118.502341 33.464134 -82.3
-118.477359 33.449088 -58.5
-118.500385 33.452208 -23.8
-118.496134 33.452266 -51.2
-118.486168 33.452727 -65.8
-118.490781 33.448274 -4.6
-118.486531 33.412916 -8.5
-118.490645 33.414135 -19.2
-118.513457 33.409169 -93.3
-118.503146 33.455873 -60.4
-118.494791 33.416344 -42.1
-118.511969 33.456354 -6.7
-118.496896 33.41933 -38.4
-118.492979 33.420305 -11.0
-118.511349 33.413699 -86.0
-118.511741 33.459068 -32.9
-118.476865 33.457248 -192.0
-118.482954 33.465732 -206.7
-118.515844 33.461215 -34.7
-118.468125 33.444688 -82.3
-118.51708 33.420227 -78.6
-118.472993 33.448071 -87.8
-118.490793 33.451549 -40.2
-118.494509 33.451855 -49.4
-118.501007 33.464523 -84.1
-118.495448 33.452749 -53.0
-118.489143 33.453102 -36.6
-118.519966 33.462459 -21.9
-118.498385 33.442638 -4.0
-118.495098 33.454685 -56.7
-118.518171 33.465976 -53.0
-118.495001 33.444513 -25.6
-118.495376 33.458443 -62.2
-118.523606 33.41783 -87.8
-118.491015 33.44553 -25.6
-118.497331 33.458851 -64.0
-118.489618 33.403239 -27.4
-118.487365 33.446019 -29.3
-118.487881 33.409886 -17.8
-118.487212 33.447394 -43.9
-118.499019 33.447785 -21.9
-118.499705 33.463534 -80.5
-118.498346 33.447919 -20.1
-118.487143 33.448258 -47.5
-118.494762 33.448735 -38.4
-118.491051 33.449233 -9.4
-118.50181 33.407814 -82.3
-118.514221 33.409955 -91.4
-118.495702 33.416616 -45.7
-118.500077 33.417813 -54.9
-118.491804 33.449508 -11.9
-118.509405 33.411499 -86.0
-118.505707 33.456737 -54.9
-118.507721 33.457298 -51.2
-118.496074 33.418608 -38.4
-118.463808 33.441791 -53.0
-118.509935 33.459265 -40.2
-118.483134 33.459104 -113.4
-118.487518 33.450058 -25.6
-118.521578 33.415135 -89.6
-118.474629 33.444288 -18.3
-118.491484 33.450838 -38.4
-118.495856 33.450916 -47.5
-118.505794 33.419402 -62.2
-118.508099 33.420677 -64.0
-118.47864 33.449402 -56.7
-118.480679 33.449702 -58.5
-118.496841 33.441835 -1.2
-118.496569 33.442213 -4.6
-118.488109 33.453391 -51.2
-118.499435 33.454144 -53.0
-118.508057 33.425735 -18.3
-118.495531 33.442474 -6.7
-118.493206 33.442635 -5.8
-118.521882 33.466134 -16.5
-118.51608 33.467268 -71.3
-118.48867 33.455455 -54.9
-118.520606 33.417813 -86.0
-118.491968 33.457759 -58.5
-118.485034 33.448105 -36.6
-118.510877 33.407181 -95.1
-118.493091 33.413755 -38.4
-118.489645 33.413988 -16.9
-118.495929 33.449116 -40.2
-118.48897 33.449183 -36.6
-118.513538 33.407775 -95.1
-118.492143 33.417158 -17.8
-118.514644 33.45742 -1.2
-118.480006 33.450371 -75.0
-118.511174 33.458607 -32.9
-118.482529 33.455016 -86.0
-118.48402 33.456187 -86.0
-118.521736 33.406322 -115.2
-118.508649 33.459601 -45.7
-118.514741 33.459904 -34.7
-118.497621 33.450196 -45.7
-118.48427 33.450269 -69.5
-118.521506 33.415821 -89.6
-118.482037 33.44811 -12.2
-118.483304 33.448349 -32.9
-118.495098 33.442977 -11.6
-118.489701 33.454413 -40.2
-118.522152 33.46639 -20.1
-118.49798 33.44393 -11.9
-118.490243 33.45567 -31.1
-118.491404 33.455932 -51.2
-118.493034 33.456101 -58.5
-118.509938 33.428985 -9.4
-118.506694 33.431235 -7.9
-118.519524 33.468112 -47.5
-118.496031 33.456982 -62.2
-118.495587 33.457473 -62.2
-118.519282 33.469312 -53.0
-118.490737 33.459687 -67.7
-118.494615 33.460993 -64.0
-118.495027 33.409106 -62.2
-118.485234 33.44741 -11.3
-118.49687 33.463504 -80.5
-118.490323 33.464559 -82.3
-118.493124 33.41128 -49.4
-118.491054 33.447919 -14.2
-118.502902 33.40997 -80.5
-118.506824 33.454834 -6.7
-118.494055 33.41663 -31.1
-118.492131 33.417763 -16.9
-118.48604 33.449341 -56.7
-118.491451 33.449702 -13.3
-118.494096 33.419027 -16.9
-118.494794 33.419869 -15.1
-118.495902 33.420519 -13.7
-118.481184 33.450313 -69.5
-118.51208 33.460223 -32.9
-118.470829 33.442658 -19.7
-118.480165 33.458957 -173.7
-118.512605 33.41713 -84.1
-118.472362 33.443991 -60.4
-118.49062 33.45066 -36.6
-118.508557 33.418191 -75.0
-118.508496 33.419713 -67.7
-118.505819 33.462304 -76.8
-118.516327 33.462995 -42.1
-118.484868 33.451224 -73.2
-118.500096 33.451713 -27.4
-118.488409 33.45203 -4.9
-118.516238 33.46467 -56.7
-118.48379 33.449274 -60.4
-118.477309 33.449591 -78.6
-118.498463 33.452208 -45.7
-118.484893 33.45226 -75.0
-118.515469 33.422038 -15.5
-118.521221 33.462501 -16.9
-118.496959 33.454421 -56.7
-118.521085 33.465629 -27.4
-118.492145 33.443488 -11.3
-118.498285 33.444127 -5.5
-118.494787 33.444166 -25.6
-118.495709 33.45593 -60.4
-118.507466 33.428235 -3.0
-118.504466 33.468757 -100.6
-118.48714 33.44688 -36.6
-118.488606 33.462726 -80.5
-118.499035 33.46307 -76.8
-118.494779 33.447491 -34.7
-118.519349 33.422733 -65.8
-118.51898 33.425685 -21.9
-118.48657 33.446552 -10.1
-118.494162 33.446569 -32.9
-118.490173 33.462612 -67.7
-118.495821 33.408011 -65.8
-118.491945 33.408811 -47.5
-118.493979 33.447258 -32.9
-118.486234 33.412052 -8.5
-118.503335 33.453916 -11.3
-118.50091 33.413585 -71.3
-118.508007 33.407964 -87.8
-118.493312 33.419277 -15.1
-118.480656 33.451269 -78.6
-118.463275 33.441658 -40.2
-118.481945 33.452035 -80.5
-118.483831 33.457737 -93.3
-118.520195 33.414571 -89.6
-118.520453 33.416605 -87.8
-118.50823 33.460932 -16.9
-118.500574 33.450888 -21.9
-118.473479 33.447016 -82.3
-118.514457 33.421841 -27.4
-118.479904 33.448941 -40.2
-118.511471 33.421996 -42.1
-118.492604 33.45488 -53.0
-118.507632 33.428391 -4.6
-118.523202 33.467812 -20.1
-118.489245 33.457595 -65.8
-118.519574 33.418519 -84.1
-118.500435 33.459851 -69.5
-118.486795 33.446735 -25.6
-118.488976 33.461568 -78.6
-118.489051 33.408011 -20.1
-118.48904 33.408495 -20.1
-118.500705 33.4096 -76.8
-118.496545 33.447063 -32.9
-118.493074 33.41196 -47.5
-118.501057 33.453283 -9.8
-118.515899 33.408871 -95.1
-118.494741 33.415383 -43.9
-118.488826 33.449344 -40.2
-118.489395 33.449735 -36.6
-118.48982 33.449758 -32.9
-118.500549 33.450019 -8.8
-118.50883 33.410916 -86.0
-118.501427 33.411874 -75.0
-118.512371 33.457462 -20.1
-118.474993 33.451469 -129.8
-118.501574 33.41356 -73.2
-118.51508 33.458057 -11.3
-118.511632 33.458129 -31.1
-118.516549 33.458893 -2.4
-118.482412 33.456587 -106.1
-118.484565 33.44828 -38.4
-118.513844 33.406656 -98.8
-118.493063 33.412474 -45.7
-118.496891 33.414602 -56.7
-118.492545 33.449199 -9.1
-118.505996 33.411416 -82.3
-118.503057 33.413141 -76.8
-118.510171 33.457309 -31.1
-118.463261 33.442024 -53.0
-118.479437 33.454496 -118.9
-118.473818 33.457579 -215.8
-118.513899 33.46062 -36.6
-118.509691 33.461032 -0.9
-118.516413 33.461501 -31.1
-118.471626 33.445141 -78.6
-118.48807 33.450474 -9.4
-118.490906 33.450663 -34.7
-118.475368 33.447846 -71.3
-118.504269 33.421319 -40.2
-118.504841 33.421794 -42.1
-118.517285 33.423208 -31.1
-118.516566 33.423535 -9.8
-118.517846 33.460615 -8.5
-118.497202 33.442319 -4.6
-118.496684 33.453221 -54.9
-118.49149 33.454796 -32.9
-118.49928 33.454891 -54.9
-118.520291 33.466201 -40.2
-118.503596 33.471337 -146.3
-118.521746 33.467429 -34.7
-118.491695 33.457537 -60.4
-118.487398 33.445585 -20.1
-118.494379 33.459476 -62.2
-118.484481 33.460737 -109.7
-118.497505 33.446702 -29.3
-118.521756 33.428766 -11.6
-118.488384 33.409814 -17.8
-118.491645 33.464154 -56.7
-118.48794 33.411377 -16.0
-118.488451 33.44791 -40.2
-118.489351 33.448183 -32.9
-118.500594 33.465876 -96.9
-118.50123 33.452091 -8.5
-118.498946 33.413266 -65.8
-118.490956 33.448958 -6.4
-118.490659 33.417799 -12.5
-118.495468 33.449949 -42.1
-118.513546 33.410374 -89.6
-118.504388 33.456476 -58.5
-118.512502 33.457343 -14.6
-118.512619 33.458229 -29.3
-118.476301 33.452658 -137.2
-118.464022 33.447221 -140.8
-118.520489 33.409716 -98.8
-118.481265 33.457598 -128.0
-118.513249 33.417774 -84.1
-118.509413 33.46087 -13.7
-118.472215 33.446858 -84.1
-118.491331 33.450444 -31.1
-118.506452 33.418749 -65.8
-118.467847 33.447788 -137.2
-118.470553 33.448474 -129.8
-118.501896 33.420413 -29.3
-118.512291 33.465648 -78.6
-118.517352 33.42223 -45.7
-118.50386 33.466176 -84.1
-118.519496 33.462904 -29.3
-118.49758 33.442613 -5.2
-118.496652 33.442749 -8.2
-118.498441 33.443088 -4.0
-118.49743 33.443524 -10.7
-118.498571 33.443683 -6.7
-118.492156 33.455954 -56.7
-118.490987 33.456309 -54.9
-118.501546 33.46764 -106.1
-118.493231 33.457448 -60.4
-118.489031 33.445133 -4.0
-118.498562 33.460737 -69.5
-118.486862 33.405725 -15.1
-118.48737 33.406347 -16.5
-118.49973 33.461595 -75.0
-118.501752 33.451055 -6.4
-118.486362 33.411249 -11.9
-118.499043 33.46682 -113.4
-118.501488 33.453288 -4.6
-118.502519 33.453896 -10.7
-118.492165 33.416602 -19.7
-118.488312 33.449527 -42.1
-118.487929 33.449896 -38.4
-118.51403 33.45714 -0.3
-118.514569 33.457715 -8.8
-118.500682 33.421683 -13.3
-118.481123 33.453896 -86.0
-118.476126 33.454455 -173.7
-118.51091 33.459495 -32.9
-118.51668 33.459595 -15.5
-118.507191 33.460248 -43.9
-118.483431 33.46022 -118.9
-118.510477 33.461023 -11.9
-118.508494 33.461434 -32.9
-118.470768 33.443977 -64.0
-118.497849 33.450916 -45.7
-118.486465 33.451221 -56.7
-118.511788 33.423502 -29.3
-118.509732 33.465937 -82.3
-118.49474 33.441608 -0.3
-118.510069 33.424269 -51.2
-118.508569 33.425155 -36.6
-118.489731 33.454646 -38.4
-118.494084 33.454913 -56.7
-118.508085 33.426635 -11.6
-118.49738 33.444221 -17.8
-118.49077 33.455344 -27.4
-118.49127 33.458204 -58.5
-118.495659 33.44498 -27.4
-118.485515 33.445649 -11.9
-118.489729 33.445869 -27.4
-118.487168 33.404506 -16.9
-118.493921 33.407375 -58.5
-118.489168 33.462118 -76.8
-118.485851 33.46324 -107.9
-118.49686 33.408942 -67.7
-118.484445 33.447652 -23.8
-118.480915 33.459254 -153.6
-118.50801 33.461207 -21.9
-118.508055 33.462207 -62.2
-118.513932 33.420344 -76.8
-118.468028 33.449149 -168.2
-118.510263 33.422219 -65.8
-118.516044 33.422233 -21.9
-118.49569 33.441669 -0.6
-118.489045 33.453724 -42.1
-118.48509 33.445021 -6.1
-118.488229 33.458845 -78.6
-118.488712 33.460895 -78.6
-118.496179 33.461204 -65.8
-118.517746 33.423721 -29.3
-118.491254 33.44681 -27.4
-118.493895 33.462495 -64.0
-118.494063 33.409167 -56.7
-118.487948 33.409322 -17.8
-118.495204 33.463801 -76.8
-118.494726 33.464351 -80.5
-118.500963 33.450424 -13.7
-118.487923 33.41035 -16.0
-118.487926 33.448519 -42.1
-118.497373 33.466898 -118.9
-118.499677 33.467898 -117.0
-118.485456 33.448646 -53.0
-118.486229 33.448696 -53.0
-118.510496 33.412221 -86.0
-118.517566 33.41236 -106.1
-118.503182 33.456607 -60.4
-118.482093 33.450605 -71.3
-118.476145 33.451491 -107.9
-118.515346 33.45777 -4.0
-118.468003 33.442394 -25.6
-118.469372 33.444735 -80.5
-118.487393 33.450677 -1.5
-118.486665 33.450821 -20.1
-118.508532 33.418896 -71.3
-118.512674 33.421358 -42.1
-118.508666 33.465243 -80.5
-118.50636 33.422516 -47.5
-118.50361 33.422602 -16.9
-118.51063 33.423252 -58.5
-118.490093 33.453094 -31.1
-118.495909 33.44318 -13.3
-118.496012 33.454802 -58.5
-118.48837 33.455116 -58.5
-118.501205 33.469768 -129.8
-118.521649 33.466984 -32.9
-118.490518 33.444513 -11.3
-118.498644 33.45867 -64.0
-118.485537 33.461207 -100.6
-118.521692 33.423574 -75.0
-118.491912 33.461712 -47.5
-118.494256 33.447063 -32.9
-118.484745 33.448608 -51.2
-118.506996 33.408811 -87.8
-118.506144 33.409809 -84.1
-118.49134 33.415499 -18.7
-118.508882 33.456448 -27.4
-118.513435 33.457134 -4.0
-118.505241 33.457226 -60.4
-118.491154 33.418677 -11.6
-118.514152 33.457818 -13.7
-118.510294 33.458412 -38.4
-118.502152 33.416513 -65.8
-118.517538 33.416558 -87.8
-118.519583 33.409763 -96.9
-118.517391 33.459357 -1.2
-118.516799 33.459859 -20.1
-118.496181 33.450305 -45.7
-118.509938 33.460676 -11.3
-118.471148 33.44533 -80.5
-118.509074 33.461773 -43.9
-118.509357 33.420449 -69.5
-118.515374 33.420958 -73.2
-118.505271 33.42116 -53.0
-118.501694 33.465004 -86.0
-118.482259 33.449483 -53.0
-118.494165 33.453635 -54.9
-118.519638 33.464398 -38.4
-118.519216 33.466498 -47.5
-118.488815 33.456334 -54.9
-118.497046 33.44431 -21.9
-118.485631 33.445308 -15.5
-118.484693 33.447508 -12.3
-118.492837 33.447541 -31.1
-118.48889 33.410647 -18.7
-118.512252 33.407195 -95.1
-118.502113 33.453783 -8.5
-118.50386 33.454385 -19.2
-118.50621 33.454474 -2.4
-118.48669 33.449546 -51.2
-118.492037 33.41956 -11.6
-118.491181 33.419871 -8.5
-118.492518 33.41991 -11.0
-118.47362 33.450638 -131.7
-118.507735 33.413858 -80.5
-118.512107 33.458562 -31.1
-118.462336 33.441908 -51.2
-118.465578 33.444127 -82.3
-118.517052 33.460818 -20.1
-118.504366 33.461318 -73.2
-118.509205 33.461479 -32.9
-118.510424 33.419044 -76.8
-118.473201 33.447605 -84.1
-118.475545 33.448133 -80.5
-118.478829 33.448602 -13.3
-118.477806 33.448794 -38.4
-118.494959 33.442377 -6.1
-118.506466 33.424808 -13.7
-118.521149 33.463554 -25.6
-118.498624 33.443055 -4.3
-118.507749 33.427449 -3.0
-118.509655 33.428049 -20.1
-118.52216 33.465632 -2.1
-118.505424 33.432355 -6.1
-118.513674 33.468873 -80.5
-118.520552 33.424224 -62.2
-118.522047 33.425877 -45.7
-118.494934 33.462459 -67.7
-118.489615 33.463684 -76.8
-118.491956 33.41027 -42.1
-118.490029 33.448394 -12.2
-118.491879 33.448541 -10.1
-118.499846 33.466876 -107.9
-118.493098 33.448935 -31.1
-118.496698 33.449174 -40.2
-118.50583 33.407281 -87.8
-118.501282 33.455883 -60.4
-118.509521 33.412749 -84.1
-118.498113 33.419688 -36.6
-118.483879 33.45121 -73.2
-118.506546 33.457723 -58.5
-118.511799 33.458765 -32.9
-118.519567 33.411291 -93.3
-118.48404 33.460826 -120.7
-118.515869 33.418241 -84.1
-118.473931 33.446874 -78.6
-118.493898 33.451471 -47.5
-118.517407 33.420419 -78.6
-118.515669 33.463515 -53.0
-118.488548 33.452296 -13.3
-118.487912 33.452335 -27.4
-118.495954 33.442233 -4.9
-118.492562 33.45406 -51.2
-118.512155 33.423746 -17.4
-118.50523 33.424341 -9.1
-118.493901 33.442769 -8.2
-118.489487 33.454533 -42.1
-118.511763 33.426933 -15.1
-118.510224 33.427605 -21.9
-118.497702 33.443671 -12.8
-118.497627 33.444152 -16.5
-118.487431 33.456104 -71.3
-118.520127 33.468112 -45.7
-118.495005 33.408495 -62.2
-118.485581 33.447783 -23.8
-118.491831 33.463493 -6.4
-118.49609 33.464307 -82.3
-118.502096 33.451155 -5.5
-118.493798 33.466993 -126.2
-118.500919 33.454035 -32.9
-118.494162 33.449024 -38.4
-118.473965 33.450402 -117.0
-118.504905 33.415355 -75.0
-118.463255 33.442335 -62.2
-118.477343 33.451974 -96.9
-118.517669 33.409844 -93.3
-118.517655 33.411788 -91.4
-118.508182 33.459562 -53.0
-118.461572 33.443796 -84.1
-118.483398 33.460498 -124.4
-118.486073 33.450824 -60.4
-118.511399 33.419585 -76.8
-118.500438 33.45153 -25.6
-118.500482 33.451916 -23.8
-118.511635 33.465168 -78.6
-118.519719 33.461487 -0.9
-118.510077 33.425591 -40.2
-118.492301 33.454883 -51.2
-118.489562 33.455408 -34.7
-118.493456 33.455873 -60.4
-118.508657 33.429538 -12.5
-118.488437 33.457095 -67.7
-118.496907 33.445705 -29.3
-118.497604 33.460965 -67.7
-118.487826 33.406625 -16.5
-118.486498 33.446716 -9.4
-118.498549 33.409928 -71.3
-118.496773 33.464601 -87.8
-118.490612 33.448996 -10.7
-118.506652 33.455154 -15.1
-118.504741 33.455601 -42.1
-118.50153 33.411159 -76.8
-118.478962 33.450138 -75.0
-118.504838 33.414413 -78.6
-118.50103 33.414969 -69.5
-118.464425 33.44106 -20.1
-118.481081 33.452244 -82.3
-118.520764 33.410155 -98.8
-118.50216 33.458912 -67.7
-118.506149 33.45927 -62.2
-118.501269 33.459318 -67.7
-118.484618 33.448027 -32.9
-118.496701 33.466415 -117.0
-118.494038 33.41511 -42.1
-118.495184 33.449016 -38.4
-118.488012 33.449291 -45.7
-118.509466 33.409381 -87.8
-118.490643 33.417285 -13.7
-118.500971 33.410481 -76.8
-118.515552 33.410866 -91.4
-118.513174 33.457337 -11.9
-118.483384 33.454705 -82.3
-118.479262 33.459379 -186.5
-118.511888 33.41718 -84.1
-118.501532 33.417571 -60.4
-118.515294 33.42011 -78.6
-118.507174 33.461604 -60.4
-118.49327 33.451577 -47.5
-118.485345 33.451655 -71.3
-118.487334 33.451841 -29.3
-118.51583 33.420341 -76.8
-118.499977 33.452808 -31.1
-118.514124 33.422152 -23.8
-118.511032 33.422655 -53.0
-118.518177 33.461245 -10.1
-118.519449 33.462073 -16.9
-118.519671 33.46364 -34.7
-118.521432 33.465157 -21.9
-118.519144 33.465523 -45.7
-118.49726 33.444816 -21.9
-118.493684 33.457168 -60.4
-118.521213 33.469282 -45.7
-118.520644 33.422827 -76.8
-118.487804 33.404342 -18.7
-118.489804 33.447141 -29.3
-118.503594 33.41843 -60.4
-118.474265 33.447983 -82.3
-118.499499 33.451827 -31.1
-118.493984 33.452016 -49.4
-118.48702 33.452049 -42.1
-118.514194 33.463829 -62.2
-118.504185 33.42286 -17.4
-118.496416 33.44161 -1.2
-118.489879 33.453099 -34.7
-118.490543 33.453196 -32.9
-118.494268 33.442588 -7.3
-118.497594 33.442902 -6.4
-118.493234 33.454399 -54.9
-118.523546 33.46624 -10.1
-118.52033 33.466504 -38.4
-118.508905 33.429594 -12.8
-118.490645 33.456684 -56.7
-118.518599 33.42653 -19.2
-118.485784 33.446016 -6.1
-118.492384 33.462065 -40.2
-118.489268 33.463109 -76.8
-118.496345 33.464395 -86.0
-118.48432 33.464851 -179.2
-118.502652 33.450735 -3.7
-118.492909 33.448408 -29.3
-118.494254 33.466532 -111.6
-118.496005 33.413974 -54.9
-118.489806 33.41508 -15.5
-118.49726 33.448996 -38.4
-118.507627 33.454945 -4.0
-118.508385 33.455262 -5.8
-118.506955 33.455493 -17.4
-118.488481 33.416194 -10.7
-118.503774 33.410764 -80.5
-118.502027 33.411569 -76.8
-118.481112 33.450149 -65.8
-118.477001 33.451183 -87.8
-118.478034 33.453358 -120.7
-118.512455 33.416308 -84.1
-118.517327 33.459837 -7.9
-118.490376 33.450194 -32.9
-118.506505 33.46034 -51.2
-118.514041 33.461223 -38.4
-118.471529 33.444116 -67.7
-118.474956 33.446766 -69.5
-118.490281 33.450749 -34.7
-118.490243 33.451705 -36.6
-118.51681 33.465643 -58.5
-118.484218 33.449035 -56.7
-118.483295 33.449283 -51.2
-118.48809 33.452133 -4.9
-118.497205 33.441783 0.0
-118.497927 33.453613 -54.9
-118.511335 33.423646 -38.4
-118.520996 33.462434 -16.9
-118.495824 33.41077 -62.2
-118.490965 33.448277 -5.8
-118.490859 33.465951 -106.1
-118.516935 33.40823 -98.8
-118.491029 33.417044 -15.1
-118.50186 33.412191 -76.8
-118.503724 33.456195 -58.5
-118.513919 33.457276 -4.6
-118.504649 33.457293 -62.2
-118.496099 33.419071 -34.7
-118.475556 33.451327 -115.2
-118.505791 33.414183 -78.6
-118.507802 33.458237 -54.9
-118.507232 33.458676 -56.7
-118.515291 33.459337 -29.3
-118.463542 33.444621 -84.1
-118.460325 33.446471 -137.2
-118.472176 33.442735 -21.9
-118.502057 33.417977 -58.5
-118.489279 33.45108 -29.3
-118.51648 33.41928 -82.3
-118.506735 33.461884 -67.7
-118.485118 33.451908 -73.2
-118.51311 33.420699 -69.5
-118.501155 33.420846 -17.8
-118.503252 33.463659 -82.3
-118.476195 33.448883 -78.6
-118.502232 33.42266 -12.2
-118.494168 33.44196 -4.6
-118.51128 33.42428 -36.6
-118.495748 33.442974 -11.9
-118.487543 33.455388 -67.7
-118.489268 33.455544 -47.5
-118.521521 33.467882 -36.6
-118.522282 33.469418 -32.9
-118.488551 33.445935 -31.1
-118.490884 33.461126 -65.8
-118.487145 33.407056 -15.1
-118.49581 33.408692 -64.0
-118.494082 33.409745 -56.7
-118.487898 33.46402 -89.6
-118.491643 33.464965 -69.5
-118.49916 33.465043 -95.1
-118.498499 33.410153 -69.5
-118.48852 33.410869 -16.9
-118.49716 33.448355 -36.6
-118.488509 33.466398 -137.2
-118.491226 33.414458 -20.1
-118.490126 33.448963 -16.9
-118.502532 33.454771 -36.6
-118.506049 33.41223 -82.3
-118.504871 33.413644 -78.6
-118.520272 33.415919 -89.6
-118.468 33.443766 -75.0
-118.470773 33.445694 -82.3
-118.476223 33.447096 -32.9
-118.476948 33.448196 -34.7
-118.481395 33.448546 -31.1
-118.485115 33.451221 -71.3
-118.478115 33.449313 -56.7
-118.478106 33.449491 -60.4
-118.496359 33.452144 -51.2
-118.490429 33.453774 -27.4
-118.487865 33.453999 -54.9
-118.506432 33.42526 -11.6
-118.496996 33.442499 -5.8
-118.496248 33.454671 -58.5
-118.489418 33.455188 -43.9
-118.519871 33.465895 -42.1
-118.522346 33.466123 -9.1
-118.509719 33.467801 -82.3
-118.50963 33.468001 -84.1
-118.524544 33.467998 -11.3
-118.495323 33.444594 -27.4
-118.496702 33.444646 -25.6
-118.490106 33.456718 -47.5
-118.485765 33.445655 -16.9
-118.492527 33.407067 -54.9
-118.490843 33.44646 -27.4
-118.486184 33.446591 -5.8
-118.486273 33.462409 -100.6
-118.491495 33.463187 -23.8
-118.499799 33.407964 -76.8
-118.50108 33.450146 -8.8
-118.518988 33.463637 -36.6
-118.518724 33.464229 -42.1
-118.494523 33.442999 -11.6
-118.50763 33.426416 -7.9
-118.495131 33.455774 -60.4
-118.496212 33.44456 -25.6
-118.493301 33.459257 -62.2
-118.489637 33.461362 -75.0
-118.491348 33.407075 -40.2
-118.486987 33.407275 -13.7
-118.492762 33.447221 -31.1
-118.49781 33.447491 -32.9
-118.491762 33.463718 -11.6
-118.495337 33.464398 -82.3
-118.496115 33.448294 -36.6
-118.487979 33.415088 -12.2
-118.492206 33.448921 -6.7
-118.50706 33.457118 -51.2
-118.509694 33.458207 -43.9
-118.482615 33.45298 -80.5
-118.503669 33.416369 -69.5
-118.513066 33.459557 -34.7
-118.48517 33.450463 -69.5
-118.484104 33.44791 -29.3
-118.482048 33.44851 -32.9
-118.486637 33.451769 -56.7
-118.500177 33.451905 -27.4
-118.486748 33.451971 -54.9
-118.504505 33.465473 -82.3
-118.487495 33.452385 -31.1
-118.517702 33.460207 -8.2
-118.520246 33.46389 -32.9
-118.518766 33.464851 -45.7
-118.519557 33.465998 -43.9
-118.522646 33.466545 -21.9
-118.485615 33.444794 -11.3
-118.491537 33.459198 -60.4
-118.487415 33.405834 -16.5
-118.487862 33.407347 -16.9
-118.497504 33.463023 -76.8
-118.485004 33.447385 -10.7
-118.488312 33.448366 -43.9
-118.494119 33.413452 -47.5
-118.491301 33.44893 -3.7
-118.487776 33.449016 -47.5
-118.497874 33.417974 -47.5
-118.506799 33.410941 -84.1
-118.510874 33.456573 -18.3
-118.50953 33.415663 -80.5
-118.507663 33.458982 -56.7
-118.496048 33.465984 -111.6
-118.491956 33.470479 -181.1
-118.50113 33.453844 -27.4
-118.487004 33.412477 -12.2
-118.49898 33.415171 -62.2
-118.490515 33.448694 -7.6
-118.49119 33.449608 -12.5
-118.51191 33.457101 -14.6
-118.49332 33.419758 -13.3
-118.47882 33.451366 -82.3
-118.50303 33.414002 -75.0
-118.512469 33.459598 -32.9
-118.506252 33.461357 -65.8
-118.501007 33.418002 -56.7
-118.509374 33.462432 -58.5
-118.505966 33.42093 -56.7
-118.504307 33.463523 -80.5
-118.513621 33.465457 -75.0
-118.478093 33.44911 -51.2
-118.510546 33.42193 -69.5
-118.510188 33.422985 -60.4
-118.495001 33.44163 -1.8
-118.495215 33.441746 -1.8
-118.495212 33.442535 -7.6
-118.511896 33.42606 -17.4
-118.500488 33.455966 -60.4
-118.489768 33.457176 -58.5
-118.499602 33.45827 -64.0
-118.489362 33.445494 -25.6
-118.498012 33.459315 -64.0
-118.486023 33.406353 -11.9
-118.496521 33.407122 -67.7
-118.498327 33.446433 -19.7
-118.498594 33.446752 -19.7
-118.496884 33.446769 -31.1
-118.497669 33.408139 -71.3
-118.502327 33.451263 -5.5
-118.493893 33.448027 -36.6
-118.490493 33.466529 -113.4
-118.503402 33.453655 -1.5
-118.497769 33.414288 -60.4
-118.489423 33.448908 -36.6
-118.505513 33.45456 -10.4
-118.489045 33.417177 -10.1
-118.497955 33.449721 -42.1
-118.50043 33.420091 -23.8
-118.466272 33.454035 -217.6
-118.478515 33.451858 -84.1
-118.48937 33.450155 -32.9
-118.519588 33.413349 -91.4
-118.473695 33.443994 -36.6
-118.468692 33.44433 -78.6
-118.473779 33.446613 -80.5
-118.514032 33.418696 -82.3
-118.513316 33.464007 -64.0
-118.50813 33.464798 -80.5
-118.478231 33.448899 -38.4
-118.478843 33.449171 -51.2
-118.482662 33.449377 -51.2
-118.483731 33.449455 -58.5
-118.486051 33.453049 -67.7
-118.488523 33.45308 -31.1
-118.507819 33.427974 -4.3
-118.523096 33.466129 -2.1
-118.49736 33.444002 -16.9
-118.491984 33.455255 -49.4
-118.49012 33.455558 -32.9
-118.520635 33.467704 -42.1
-118.491598 33.456734 -58.5
-118.519738 33.419505 -82.3
-118.490262 33.46134 -71.3
-118.517691 33.423046 -38.4
-118.486123 33.446349 -9.8
-118.48644 33.461915 -93.3
-118.486648 33.462934 -98.8
-118.493834 33.463776 -67.7
-118.506702 33.462468 -76.8
-118.480556 33.448583 -15.1
-118.515755 33.464782 -62.2
-118.475404 33.44941 -84.1
-118.511407 33.422796 -40.2
-118.518935 33.461315 -10.1
-118.517621 33.463801 -43.9
-118.49881 33.44321 -4.0
-118.508674 33.427944 -12.2
-118.51913 33.465193 -43.9
-118.493606 33.444135 -21.9
-118.505744 33.469437 -104.2
-118.490954 33.445099 -21.9
-118.496043 33.458882 -64.0
-118.486509 33.405025 -14.2
-118.499255 33.447127 -16.0
-118.492362 33.447688 -29.3
-118.500346 33.46402 -82.3
-118.490831 33.46417 -69.5
-118.502571 33.450358 -1.2
-118.500582 33.469129 -124.4
-118.505488 33.455923 -42.1
-118.491154 33.418252 -13.3
-118.506746 33.456401 -40.2
-118.480468 33.450202 -71.3
-118.505869 33.413599 -80.5
-118.504077 33.457487 -64.0
-118.498571 33.420899 -17.8
-118.51848 33.411524 -93.3
-118.464589 33.44266 -69.5
-118.470233 33.443499 -45.7
-118.500794 33.450177 -10.1
-118.511385 33.461104 -18.7
-118.510899 33.46129 -19.7
-118.514521 33.419088 -80.5
-118.514002 33.46199 -43.9
-118.516338 33.462412 -36.6
-118.489729 33.451413 -31.1
-118.505046 33.46477 -80.5
-118.507782 33.465868 -80.5
-118.482656 33.449183 -47.5
-118.505602 33.424571 -11.3
-118.520163 33.462345 -21.9
-118.521705 33.462393 -9.4
-118.521221 33.46332 -27.4
-118.492181 33.442466 -3.4
-118.490251 33.45443 -29.3
-118.490018 33.455002 -25.6
-118.510169 33.426246 -32.9
-118.511344 33.426605 -18.7
-118.518441 33.465718 -51.2
-118.511707 33.467276 -80.5
-118.495345 33.455616 -60.4
-118.497688 33.44433 -14.6
-118.497823 33.45717 -62.2
-118.519371 33.42166 -76.8
-118.488051 33.445649 -25.6
-118.51996 33.426602 -23.8
-118.491162 33.446571 -27.4
-118.491106 33.447452 -21.9
-118.489556 33.447677 -10.1
-118.494645 33.45003 -43.9
-118.510294 33.460526 -20.1
-118.511538 33.46099 -13.7
-118.500852 33.412127 -73.2
-118.504057 33.453869 -7.0
-118.488126 33.448658 -43.9
-118.488731 33.448724 -36.6
-118.511357 33.409966 -89.6
-118.50286 33.456804 -62.2
-118.50483 33.456823 -60.4
-118.473381 33.450913 -144.5
-118.477801 33.45168 -87.8
-118.502477 33.458012 -65.8
-118.520667 33.410852 -96.9
-118.46538 33.448458 -170.1
-118.482226 33.459015 -128.0
-118.481781 33.462323 -184.7
-118.501788 33.460704 -73.2
-118.511252 33.460893 -6.1
-118.489706 33.450899 -32.9
-118.502094 33.418566 -54.9
-118.502766 33.419819 -45.7
-118.507171 33.420235 -62.2
-118.475165 33.448116 -80.5
-118.486768 33.451346 -34.7
-118.500213 33.451505 -25.6
-118.506607 33.420816 -60.4
-118.482165 33.448724 -36.6
-118.492165 33.452938 -49.4
-118.512088 33.422105 -29.3
-118.511407 33.46599 -80.5
-118.49452 33.441971 -4.3
-118.496994 33.442163 -3.7
-118.489062 33.453483 -40.2
-118.52008 33.463215 -31.1
-118.491776 33.44281 -4.0
-118.491151 33.454177 -32.9
-118.491248 33.45458 -34.7
-118.486829 33.454866 -71.3
-118.508771 33.426599 -25.6
-118.496694 33.443594 -16.9
-118.491154 33.444221 -11.3
-118.491945 33.456023 -54.9
-118.488862 33.445388 -21.9
-118.49207 33.462984 -10.4
-118.495816 33.409395 -64.0
-118.498801 33.470123 -146.3
-118.488273 33.414958 -12.5
-118.491293 33.414974 -19.7
-118.492154 33.415291 -21.9
-118.506957 33.407378 -89.6
-118.488906 33.415991 -11.9
-118.497002 33.411286 -64.0
-118.496187 33.447946 -36.6
-118.499524 33.412924 -69.5
-118.49306 33.413074 -43.9
-118.491926 33.448952 -5.8
-118.511385 33.409338 -89.6
-118.50498 33.455893 -45.7
-118.499816 33.418205 -53.0
-118.513024 33.456782 -1.5
-118.506071 33.456862 -54.9
-118.474351 33.451113 -129.8
-118.515996 33.458629 -7.6
-118.47402 33.452633 -168.2
-118.508144 33.459259 -53.0
-118.503099 33.45944 -71.3
-118.516321 33.417258 -86.0
-118.507516 33.46099 -31.1
-118.515363 33.418777 -82.3
-118.512291 33.462515 -40.2
-118.502555 33.463218 -80.5
-118.47099 33.448124 -115.2
-118.484454 33.451733 -75.0
-118.511707 33.464143 -65.8
-118.513999 33.464979 -73.2
-118.477893 33.449583 -69.5
-118.478454 33.449869 -73.2
-118.492779 33.452535 -49.4
-118.498963 33.452958 -47.5
-118.519896 33.461651 -6.4
-118.496201 33.441916 -3.0
-118.495418 33.442266 -5.5
-118.488909 33.454155 -49.4
-118.511135 33.424999 -29.3
-118.520321 33.464357 -32.9
-118.507363 33.427202 -0.6
-118.507988 33.427524 -6.1
-118.496301 33.443549 -16.5
-118.500594 33.45558 -58.5
-118.509935 33.428521 -16.9
-118.511399 33.468979 -82.3
-118.507099 33.470001 -102.4
-118.498377 33.444549 -5.2
-118.486398 33.444635 -10.4
-118.488915 33.447194 -36.6
-118.490409 33.447555 -7.6
-118.487223 33.410445 -14.6
-118.485529 33.447963 -32.9
-118.501635 33.453396 -0.6
-118.497757 33.414921 -58.5
-118.516294 33.409366 -95.1
-118.516224 33.409913 -93.3
-118.504066 33.455909 -53.0
-118.516438 33.41321 -89.6
-118.500569 33.420358 -21.9
-118.47764 33.451138 -84.1
-118.470333 33.451908 -188.4
-118.515627 33.41393 -87.8
-118.501288 33.458343 -65.8
-118.463686 33.441183 -14.2
-118.514063 33.459037 -31.1
-118.511577 33.459454 -34.7
-118.487037 33.450113 -32.9
-118.469386 33.446152 -86.0
-118.492793 33.45061 -43.9
-118.484537 33.450644 -71.3
-118.491481 33.451621 -40.2
-118.49694 33.45173 -49.4
-118.512094 33.42053 -75.0
-118.506969 33.423102 -42.1
-118.516435 33.46632 -65.8
-118.497591 33.442449 -4.3
-118.499519 33.453752 -49.4
-118.521032 33.462179 -14.2
-118.520102 33.465562 -36.6
-118.491034 33.455633 -34.7
-118.499432 33.446946 -8.5
-118.498457 33.408534 -73.2
-118.502946 33.450688 -2.1
-118.493143 33.416994 -20.1
-118.500785 33.449927 -3.0
-118.506149 33.413063 -80.5
-118.508705 33.456157 -25.6
-118.505994 33.456334 -42.1
-118.508421 33.457201 -47.5
-118.511619 33.459757 -31.1
-118.508644 33.45982 -43.9
-118.482759 33.460973 -140.8
-118.520189 33.415183 -89.6
-118.511194 33.417988 -82.3
-118.516919 33.419383 -82.3
-118.503819 33.419863 -53.0
-118.51651 33.420027 -80.5
-118.513644 33.46352 -60.4
-118.483023 33.449421 -51.2
-118.51748 33.466379 -56.7
-118.49698 33.44173 0.0
-118.505332 33.424158 -13.7
-118.494704 33.44263 -8.2
-118.484895 33.454691 -80.5
-118.507555 33.427985 -1.2
-118.494123 33.443908 -21.9
-118.508807 33.429244 -13.7
-118.488893 33.444894 -3.4
